# .PCD v0.7 - Point Cloud Data file format
VERSION 0.7
FIELDS x y z
SIZE 4 4 4
TYPE F F F
COUNT 1 1 1
WIDTH 128
HEIGHT 1
VIEWPOINT 0 0 0 1 0 0 0
POINTS 128
DATA ascii
0.0042931307 -0.070029892 0.27400002
0.0068780174 -0.070191443 0.27399999
-0.001347236 -0.066329986 0.27395657
0.0026741559 -0.067420855 0.27363467
0.0073621096 -0.067498319 0.27350795
0.011314716 -0.066551834 0.2739616
-0.0051847855 -0.061218392 0.27400005
-0.0022423076 -0.062459163 0.27334619
0.0025898791 -0.062643364 0.27236491
0.0073960279 -0.062682047 0.27230868
0.012375573 -0.062453929 0.27335447
0.015400064 -0.061410911 0.27400002
-0.0053921156 -0.057767842 0.27399999
-0.0025324787 -0.057269864 0.2731806
0.0023996485 -0.057561804 0.27199993
0.0073980382 -0.057561774 0.27199993
0.012400291 -0.057311833 0.27306032
0.015480844 -0.057549737 0.27399999
-0.0018455089 -0.052552816 0.27363938
0.0025349678 -0.052535892 0.27242845
0.0074503962 -0.052524876 0.27259523
0.01203986 -0.052538075 0.2736364
-0.00050506456 -0.049415424 0.27400002
0.0028436249 -0.048746977 0.27379489
0.0070165512 -0.04880498 0.27381402
0.01063995 -0.049275801 0.27400005
-0.0070949923 -0.071902491 0.27848837
-0.002276063 -0.072281003 0.27724004
0.0024940753 -0.071725428 0.27558818
0.0078698117 -0.071816236 0.27520001
0.012264775 -0.072392724 0.27701595
0.016301341 -0.071957007 0.27871871
-0.010608679 -0.066602461 0.27864292
-0.0073990799 -0.067646123 0.27707815
-0.0029492583 -0.068164751 0.27535546
0.00085308345 -0.069282196 0.27500001
0.013085229 -0.068198934 0.27540907
0.017419849 -0.067543574 0.2772001
0.020571008 -0.066451088 0.27876925
-0.010823021 -0.06261012 0.27804166
-0.0075146551 -0.062576681 0.27565151
-0.0046091764 -0.064711735 0.27500001
0.014564471 -0.064711735 0.27500001
0.017570116 -0.062500186 0.27580261
0.021363501 -0.062506691 0.27836108
-0.011104651 -0.057523742 0.2782703
-0.0078134984 -0.057317395 0.27544227
0.017873285 -0.057422373 0.27566668
0.021531641 -0.057601865 0.27821279
-0.010708213 -0.052626111 0.27849996
-0.0074434313 -0.052463233 0.27629492
-0.0039989986 -0.051369976 0.27500004
0.014029392 -0.05117128 0.27500004
0.017500248 -0.052477963 0.27621856
0.020979529 -0.052823003 0.27846661
-0.010104834 -0.049140964 0.27900001
-0.0069783051 -0.047713794 0.27788708
-0.0024576385 -0.047513027 0.27581695
0.002431686 -0.046267442 0.2752381
0.0076831295 -0.046363842 0.27527493
0.012491597 -0.047406051 0.2758919
0.016937207 -0.047811199 0.27786371
0.020204933 -0.049140964 0.27900001
-0.0052371044 -0.044576734 0.27875
-0.0020388609 -0.043398481 0.27822003
0.0025992917 -0.042677663 0.27743599
0.00752539 -0.042605024 0.27763638
0.0121708 -0.04343323 0.27807277
0.015479411 -0.044335537 0.2788572
-0.011665537 -0.070380896 0.28228572
-0.0096870465 -0.072471403 0.28
0.018705795 -0.071842775 0.28
0.020453367 -0.070436284 0.28033334
-0.01299703 -0.067354321 0.28173685
0.019823346 -0.069747366 0.28
0.022366095 -0.067403935 0.28097498
-0.01594365 -0.062351715 0.28243482
-0.013468948 -0.062689297 0.28117502
0.023976212 -0.062648624 0.28091434
0.025830448 -0.061659269 0.28246668
-0.016358836 -0.057160784 0.28112507
-0.013708953 -0.057585947 0.28022227
0.024071733 -0.057514098 0.28055561
0.026064554 -0.05739538 0.2823104
-0.016480975 -0.052601695 0.28285718
-0.013289902 -0.052382033 0.28105995
0.02319365 -0.052281167 0.28119993
0.025984282 -0.052333694 0.28328124
-0.015811825 -0.049561135 0.28400001
-0.012184337 -0.047857717 0.28230911
-0.0089664599 -0.046236113 0.2803846
0.018939653 -0.04624977 0.28035295
0.022389727 -0.047616296 0.28250697
0.025632439 -0.049561135 0.28400001
-0.010462878 -0.04427987 0.28380004
-0.0072581009 -0.042777788 0.28211477
-0.0031199283 -0.041131914 0.28067571
0.0025711164 -0.04023698 0.28
0.0077467845 -0.04028238 0.28
0.01328934 -0.041049469 0.28087184
0.017459974 -0.042673539 0.28213641
0.020831907 -0.04390242 0.28357142
-0.0053356369 -0.039084949 0.28400001
-0.0019648494 -0.038560417 0.28237501
0.0026688317 -0.03790516 0.28218469
0.0075169294 -0.038078815 0.28220639
0.011971897 -0.038765714 0.28284374
0.015386496 -0.039315194 0.28400001
0.026415864 -0.050197762 0.28500003
-0.015810797 -0.047872301 0.28772226
-0.013473607 -0.046152197 0.28625
0.023888743 -0.045834612 0.28516671
0.026040394 -0.048262671 0.28500006
-0.012347937 -0.042659335 0.28735548
-0.0091605736 -0.041178554 0.28526673
0.018678896 -0.040873855 0.28540003
0.021663891 -0.042071171 0.28631252
-0.011170173 -0.039536599 0.287
-0.0073710992 -0.038100749 0.28636003
-0.0027718013 -0.036258604 0.28652498
0.0023909411 -0.035496216 0.28570005
0.0075951493 -0.035621095 0.2854
0.012611468 -0.036676105 0.28654552
0.01696662 -0.038563356 0.28697145
0.021051044 -0.039551664 0.2871111
-0.015675658 -0.045906 0.29000002
-0.015205438 -0.044495337 0.29000002
-0.014735217 -0.044025116 0.29000002
