# .PCD v0.7 - Point Cloud Data file format
VERSION 0.7
FIELDS x y z
SIZE 4 4 4
TYPE F F F
COUNT 1 1 1
WIDTH 119
HEIGHT 1
VIEWPOINT 0 0 0 1 0 0 0
POINTS 119
DATA ascii
-0.060921542 0.0092421044 0.15399997
-0.057461094 0.0088751866 0.15371434
-0.053696081 0.0093041388 0.15387748
-0.06525667 0.014326341 0.15400001
-0.062172163 0.012679582 0.1532678
-0.057440776 0.012493801 0.15245816
-0.052412316 0.012521948 0.15299636
-0.048986565 0.013556016 0.15381159
-0.065476649 0.017578429 0.15399994
-0.062264495 0.01744408 0.1525574
-0.057495061 0.017357826 0.15149388
-0.052599411 0.01742382 0.15186419
-0.048277706 0.01754057 0.15346682
-0.06543979 0.0209518 0.15400003
-0.062365621 0.022373935 0.15305401
-0.057376739 0.022532845 0.15187211
-0.052448492 0.022479087 0.15212791
-0.048348647 0.022233067 0.15348674
-0.061344698 0.025949065 0.15371425
-0.05719908 0.027111422 0.1533162
-0.052572899 0.027142273 0.15344641
-0.04912252 0.025979213 0.15397364
-0.065585241 0.0046955533 0.15885717
-0.062434614 0.0044800173 0.15865678
-0.057548847 0.0043822303 0.15829338
-0.052411806 0.0044271429 0.15809751
-0.049580097 0.0048479633 0.15888891
-0.066712402 0.0080360575 0.15763633
-0.062647857 0.0072758365 0.15609051
-0.057414547 0.006534914 0.15565877
-0.052248083 0.007323321 0.15589209
-0.048000839 0.0080025205 0.15768024
-0.044664629 0.0095883971 0.15900004
-0.066959731 0.01233436 0.15603511
-0.06441056 0.010953736 0.15499999
-0.050651193 0.010448439 0.155
-0.046968766 0.012196004 0.15601265
-0.043880187 0.01301821 0.15833354
-0.066821054 0.016587408 0.15517241
-0.045829304 0.017233949 0.15536211
-0.043052178 0.017565193 0.15768491
-0.067246616 0.02324607 0.15658729
-0.064926438 0.024598021 0.155
-0.045900837 0.022713812 0.15526615
-0.043256428 0.022394821 0.15748629
-0.06560567 0.027288456 0.15677777
-0.062672108 0.027978174 0.15560344
-0.058739066 0.02928343 0.15499999
-0.051485211 0.029290935 0.15506253
-0.047208283 0.027668072 0.15600424
-0.04388373 0.027158171 0.15827206
-0.061250679 0.031413939 0.15695004
-0.057360109 0.0324414 0.15674877
-0.052422278 0.03237962 0.15675464
-0.047967546 0.031653944 0.15767142
-0.044773996 0.030303087 0.15900002
-0.056338653 0.035588194 0.15899999
-0.053926282 0.035609689 0.15900004
-0.066476926 0.0027969531 0.16166288
-0.062597878 0.0024822806 0.16173686
-0.057469271 0.0025664903 0.16167614
-0.052334871 0.0025261515 0.16197531
-0.048130956 0.0036534476 0.16232574
-0.070134029 0.0090040518 0.16000001
-0.068621106 0.0063930806 0.16010255
-0.046238005 0.0062907585 0.16082957
-0.043404661 0.0082531106 0.16226499
-0.041644279 0.0123492 0.16187234
-0.039825857 0.013903063 0.1637273
-0.040865574 0.017209159 0.16125001
-0.039279316 0.01783197 0.16320984
-0.040901463 0.022766054 0.16074525
-0.039391153 0.022144986 0.16349272
-0.041761339 0.027772922 0.16165359
-0.038595513 0.026631454 0.16376925
-0.034883995 0.028333314 0.16350001
-0.046685643 0.033616833 0.16083501
-0.043543044 0.031792957 0.16233937
-0.056414805 0.036980525 0.16093335
-0.052522019 0.037003212 0.16158257
-0.048000813 0.036165997 0.16259177
-0.065484092 -0.00081960059 0.16711538
-0.062816396 -0.00086613861 0.16822359
-0.057461213 -0.00082767784 0.16820003
-0.052442141 -0.0011100264 0.16824764
-0.049302891 -0.00078051951 0.16888888
-0.066181943 0.00063691288 0.16560866
-0.062332883 0.00071957387 0.16609432
-0.05747008 0.00077600213 0.16564813
-0.052744791 0.000690324 0.16559993
-0.047137272 0.0021907545 0.16678624
-0.044119839 0.0042292452 0.16776317
-0.045125894 0.0053615198 0.16500001
-0.042124342 0.007384148 0.16672504
-0.039659262 0.0096858414 0.16887502
-0.040324803 0.010973292 0.16653845
-0.039123122 0.012963905 0.1676881
-0.038260754 0.017358746 0.16748179
-0.038046617 0.022817114 0.16689932
-0.040316258 0.029062429 0.16588889
-0.037910663 0.027160604 0.16704814
-0.034870218 0.028191535 0.16500001
-0.041764583 0.032746445 0.16660747
-0.038685165 0.031626306 0.16818576
-0.043836281 0.03582814 0.16727774
-0.06195667 -0.0027668576 0.17020991
-0.057788149 -0.0030135142 0.17052934
-0.053932127 -0.0029842982 0.17000002
-0.048572179 -0.00082736422 0.16999999
-0.046125814 0.0011487778 0.17000003
-0.043908421 0.003325996 0.17085297
-0.041278448 0.0068311812 0.17089057
-0.039685681 0.0090385349 0.17243481
-0.038008016 0.012493309 0.17078666
-0.036918696 0.017269807 0.17086564
-0.036368567 0.022613259 0.17110203
-0.035569098 0.025521034 0.17040001
-0.04136394 0.034569494 0.17060001
-0.038442168 0.03228467 0.16999999
