# .PCD v0.7 - Point Cloud Data file format
VERSION 0.7
FIELDS x y z
SIZE 4 4 4
TYPE F F F
COUNT 1 1 1
WIDTH 125
HEIGHT 1
VIEWPOINT 0 0 0 1 0 0 0
POINTS 125
DATA ascii
-0.071914129 -0.021026345 0.20897871
-0.067320764 -0.021548864 0.20882779
-0.0638877 -0.020693567 0.20900005
-0.075272515 -0.016537648 0.20900007
-0.072216369 -0.017298996 0.2083167
-0.067532837 -0.017309874 0.20801505
-0.063189991 -0.017162075 0.20875195
-0.075324327 -0.012499562 0.20900008
-0.072140068 -0.012330804 0.2081546
-0.067565911 -0.012322064 0.20800012
-0.063236587 -0.012446092 0.208616
-0.075007297 -0.0091927247 0.20900001
-0.071999446 -0.0085971979 0.20882803
-0.067545272 -0.0082872938 0.20870401
-0.063598245 -0.0092653399 0.20900007
-0.069514938 -0.030405559 0.21400002
-0.076981947 -0.027203249 0.21294117
-0.072419666 -0.027237164 0.21226937
-0.067521423 -0.02717497 0.21206671
-0.062394235 -0.026928214 0.21264429
-0.058977108 -0.026152978 0.21384002
-0.081271425 -0.021849442 0.21314813
-0.077262424 -0.022490876 0.21120755
-0.072583355 -0.023378989 0.2101936
-0.067225009 -0.023916729 0.21002328
-0.062104695 -0.022656471 0.21060313
-0.057852369 -0.022498704 0.21300004
-0.054941341 -0.020863324 0.21400002
-0.081914045 -0.017373238 0.21283786
-0.07757517 -0.017661881 0.21016471
-0.06080858 -0.017838664 0.21008699
-0.057535794 -0.017583916 0.2119274
-0.054941349 -0.016468115 0.21400002
-0.082449555 -0.012754808 0.21281947
-0.078023158 -0.01240344 0.21016458
-0.060836859 -0.012149974 0.21006821
-0.057517745 -0.012554755 0.2117909
-0.054941349 -0.013316287 0.214
-0.081204966 -0.0077396296 0.21307409
-0.077575229 -0.0074647698 0.21112171
-0.072918199 -0.006325122 0.21009618
-0.066717505 -0.0061851512 0.21004653
-0.062118977 -0.0071974634 0.21070889
-0.057937749 -0.007825071 0.21288143
-0.080757424 -0.0044506849 0.21400002
-0.07721848 -0.0028904651 0.21314636
-0.072367623 -0.0026317749 0.21163028
-0.067400828 -0.002690722 0.21155255
-0.06252078 -0.0028257635 0.21267767
-0.059077114 -0.0041883141 0.21390001
-0.075512916 0.00032786679 0.21400002
-0.072180174 0.00086893729 0.21353337
-0.067689642 0.00076297781 0.21363471
-0.063789599 0.00038982928 0.21400002
-0.072731026 -0.030985 0.21561539
-0.066324942 -0.031169785 0.21746154
-0.062347084 -0.031274252 0.21795461
-0.058792982 -0.030665345 0.21876474
-0.075068951 -0.029676111 0.215
-0.072832026 -0.029763266 0.215
-0.066869758 -0.029775761 0.21546672
-0.062163524 -0.029446485 0.21546881
-0.057325982 -0.02787463 0.21666975
-0.054475438 -0.025959702 0.21875003
-0.055536222 -0.023572363 0.21542861
-0.053537082 -0.022309864 0.2176915
-0.084535114 -0.018078068 0.21499999
-0.055198081 -0.018904008 0.21500002
-0.052818995 -0.017543338 0.21685502
-0.084365271 -0.010792976 0.21500002
-0.055198085 -0.011025383 0.215
-0.052807353 -0.012614108 0.21677694
-0.085589647 -0.0086372606 0.21633336
-0.083680123 -0.007738593 0.21550004
-0.055730838 -0.00683096 0.21568893
-0.053639639 -0.0078312876 0.21775535
-0.08157935 -0.0023627037 0.21584214
-0.079237558 -0.0012457437 0.21522219
-0.060865544 -0.0010281074 0.21532005
-0.057472259 -0.0025579955 0.21677232
-0.054593842 -0.004271125 0.21875
-0.080793619 0.00086962292 0.21727274
-0.077538602 0.0021708561 0.21697403
-0.072512202 0.0033359614 0.21609229
-0.06747888 0.0032419933 0.21614632
-0.062653631 0.0023291919 0.21705119
-0.058977332 0.0011538587 0.21842857
-0.07551866 0.0052223457 0.21900003
-0.072347119 0.0056526228 0.21850002
-0.067704603 0.005448286 0.21854545
-0.064392269 0.0052815285 0.21900001
-0.067466848 -0.035174556 0.22200005
-0.064674422 -0.035261821 0.22200003
-0.070903398 -0.033049207 0.22142316
-0.067703024 -0.033424184 0.22144075
-0.062791303 -0.033300765 0.2204359
-0.05711649 -0.031529989 0.2209831
-0.054375667 -0.030425213 0.22285718
-0.055539154 -0.02907506 0.22068751
-0.052818298 -0.027251728 0.22222917
-0.051067501 -0.022690786 0.22140738
-0.049836863 -0.022219572 0.22379999
-0.050453581 -0.017654806 0.22074419
-0.049791854 -0.017221775 0.22282614
-0.050428219 -0.012435753 0.221
-0.049773701 -0.013016392 0.22325003
-0.051400051 -0.0074441694 0.22151279
-0.055746276 -0.0011365593 0.22089656
-0.053169847 -0.0030142106 0.22217049
-0.07717146 0.0047705662 0.22000001
-0.061251305 0.0043335496 0.22017649
-0.057677954 0.002497491 0.2221579
-0.054603066 0.00028092394 0.22400001
-0.076101303 0.0055731842 0.22000001
-0.050671592 -0.026333923 0.22500001
-0.049739257 -0.025401589 0.22500001
-0.049495786 -0.021540603 0.22533333
-0.048979625 -0.017376747 0.22520004
-0.050104082 -0.010078887 0.22500001
-0.048934434 -0.012309101 0.22517776
-0.050587997 -0.0067322785 0.22617391
-0.049407702 -0.0082782237 0.22688238
-0.051833469 -0.0021671208 0.22575
-0.056262918 0.0031907419 0.22588883
-0.05316307 0.0015289416 0.2258545
