# .PCD v0.7 - Point Cloud Data file format
VERSION 0.7
FIELDS x y z
SIZE 4 4 4
TYPE F F F
COUNT 1 1 1
WIDTH 122
HEIGHT 1
VIEWPOINT 0 0 0 1 0 0 0
POINTS 122
DATA ascii
-0.040092614 -0.080161996 0.30400002
-0.037120596 -0.081408806 0.30399993
-0.03322693 -0.081042215 0.30399996
-0.040743966 -0.077010825 0.30399996
-0.037430845 -0.077303037 0.30399993
-0.03269881 -0.077266075 0.30400008
-0.029530028 -0.076993227 0.30399999
-0.041108325 -0.072603896 0.30399993
-0.037335597 -0.072537713 0.30370003
-0.032976069 -0.072747633 0.30399993
-0.029741278 -0.07424695 0.30400002
-0.041078456 -0.069810666 0.30400002
-0.037176169 -0.069605291 0.30399999
-0.034095414 -0.069646358 0.30400002
-0.030681189 -0.090116493 0.30600002
-0.026712487 -0.090716973 0.30794448
-0.024092847 -0.090874724 0.30900002
-0.046534173 -0.086658858 0.30800006
-0.042598832 -0.08718951 0.30669814
-0.037371673 -0.087032899 0.30533335
-0.032352 -0.087391965 0.30539283
-0.027543666 -0.087407038 0.30682254
-0.023716431 -0.087019585 0.30858064
-0.050872799 -0.081680857 0.30900002
-0.047429085 -0.082322769 0.30711767
-0.042543601 -0.082403742 0.30553451
-0.037791353 -0.084025964 0.30499995
-0.032251876 -0.083527811 0.30500004
-0.027850423 -0.082486756 0.30545759
-0.022814421 -0.08228559 0.30739683
-0.019565705 -0.081838332 0.30900002
-0.0507726 -0.077848002 0.30900002
-0.04745046 -0.077546924 0.30667999
-0.043345816 -0.077604517 0.30505887
-0.027310448 -0.077606827 0.30504009
-0.02264218 -0.077524357 0.30670759
-0.01919188 -0.077784985 0.30875003
-0.0507726 -0.072775088 0.30900002
-0.04749858 -0.072599426 0.30698356
-0.043453667 -0.072124347 0.30510002
-0.03132274 -0.071111806 0.30500007
-0.027777806 -0.072434306 0.30559093
-0.022802535 -0.072678104 0.30733761
-0.019386763 -0.073571369 0.30900002
-0.050772592 -0.069956809 0.30900002
-0.047328681 -0.067689933 0.30799994
-0.042540848 -0.06743893 0.30628991
-0.037470628 -0.066968434 0.30571643
-0.032398034 -0.06728036 0.30595717
-0.027498666 -0.06738314 0.30710948
-0.023123929 -0.06841249 0.30851352
-0.046062931 -0.06414488 0.30900002
-0.042318057 -0.06321653 0.30845001
-0.037402496 -0.062707752 0.30794826
-0.032384168 -0.062904775 0.30813998
-0.028084826 -0.063918591 0.30876192
-0.022306314 -0.090879045 0.31029999
-0.021522673 -0.087990299 0.31040001
-0.017812699 -0.08650253 0.31146872
-0.051439553 -0.080738842 0.31
-0.020275285 -0.084508717 0.31
-0.017184516 -0.082669318 0.31124079
-0.013823376 -0.08175306 0.31352392
-0.052313007 -0.07717853 0.31084999
-0.016639546 -0.07748834 0.31112248
-0.014106706 -0.077586912 0.31368008
-0.052700933 -0.072611623 0.31171429
-0.020275285 -0.070434526 0.31
-0.017168118 -0.072284855 0.31157383
-0.01473276 -0.073430829 0.31400001
-0.051990055 -0.067657091 0.31234375
-0.049146824 -0.066176936 0.31033334
-0.025301781 -0.065156713 0.31
-0.02175333 -0.066644818 0.31051287
-0.018231807 -0.067788698 0.31261364
-0.05092195 -0.062896788 0.31317651
-0.047725566 -0.06206502 0.31097785
-0.043267116 -0.061249886 0.31009519
-0.037679523 -0.060632862 0.30999997
-0.031943932 -0.060920101 0.31
-0.027033385 -0.061955098 0.31053343
-0.022633115 -0.062617183 0.31219041
-0.019119948 -0.06433028 0.31354547
-0.050321318 -0.059633255 0.31400001
-0.047039431 -0.058484085 0.31311432
-0.042395789 -0.058137435 0.31218189
-0.0376096 -0.057547823 0.31177929
-0.032571882 -0.05769439 0.31191891
-0.027701806 -0.058346577 0.31281129
-0.023792231 -0.059428435 0.31366667
-0.036574665 -0.054796468 0.31400001
-0.034792691 -0.054796468 0.31400001
-0.012110975 -0.081402637 0.31500003
-0.011988785 -0.077216715 0.31521207
-0.015031549 -0.070004456 0.31600001
-0.012544025 -0.072411969 0.31668341
-0.0099704741 -0.073541239 0.31800002
-0.053673804 -0.06748452 0.31500003
-0.015922377 -0.06708803 0.31617236
-0.013337362 -0.068288513 0.31821215
-0.051247712 -0.060078543 0.31500003
-0.02078121 -0.060818978 0.31540003
-0.017714631 -0.062661193 0.31735852
-0.014657011 -0.064720765 0.31900001
-0.050449602 -0.058948196 0.31533337
-0.046861552 -0.05642876 0.31573334
-0.043370809 -0.05579352 0.31545457
-0.030306686 -0.055481732 0.31500003
-0.027137319 -0.055863757 0.31614289
-0.022922264 -0.057997059 0.31699997
-0.019657023 -0.059462141 0.31900001
-0.045531698 -0.053869169 0.31788889
-0.042252831 -0.053746324 0.31739467
-0.037666626 -0.053839181 0.31706899
-0.032579824 -0.054266464 0.31677413
-0.028579438 -0.054500628 0.31788889
-0.012680474 -0.066490315 0.32071435
-0.016809713 -0.061041869 0.32060003
-0.014227957 -0.063973345 0.32100004
-0.025599103 -0.055324666 0.32000002
-0.02171677 -0.056711495 0.32145464
-0.018596346 -0.058671415 0.32230002
