# .PCD v0.7 - Point Cloud Data file format
VERSION 0.7
FIELDS x y z
SIZE 4 4 4
TYPE F F F
COUNT 1 1 1
WIDTH 110
HEIGHT 1
VIEWPOINT 0 0 0 1 0 0 0
POINTS 110
DATA ascii
-0.071627878 -0.086490743 0.30900002
-0.067471154 -0.087416969 0.30884129
-0.062430669 -0.087280497 0.30871668
-0.058999997 -0.086965412 0.30900002
-0.075573489 -0.081355192 0.30900002
-0.072468176 -0.082537204 0.30861107
-0.067367673 -0.082422763 0.30769223
-0.062293906 -0.082281515 0.30749992
-0.057476431 -0.08238104 0.30850944
-0.054279789 -0.080979422 0.30900002
-0.076064058 -0.077643521 0.30886367
-0.072624572 -0.077673741 0.30777353
-0.067544974 -0.0776283 0.30678576
-0.062455721 -0.077610135 0.3067143
-0.057359662 -0.077650271 0.30808455
-0.054087095 -0.077472232 0.30900002
-0.075941369 -0.073581435 0.30893338
-0.072451703 -0.072600931 0.30807945
-0.067510836 -0.072705157 0.30704406
-0.062297501 -0.072623484 0.30722496
-0.057292994 -0.072763853 0.30862501
-0.054196291 -0.073965035 0.30900002
-0.071612388 -0.068483211 0.30889288
-0.067419663 -0.067408435 0.30825806
-0.062449478 -0.067674205 0.30842865
-0.058428295 -0.068654135 0.30900002
-0.066759944 -0.064491048 0.30900002
-0.063899532 -0.064746119 0.30900002
-0.056316018 -0.09019202 0.31140003
-0.053304929 -0.090463534 0.3134546
-0.072676495 -0.088027261 0.30999997
-0.056757007 -0.087942921 0.31058702
-0.052373584 -0.087381221 0.31274998
-0.04904848 -0.086023435 0.31400001
-0.077230349 -0.082337849 0.31071424
-0.055661809 -0.084357925 0.31
-0.052321952 -0.082573026 0.3110477
-0.048995268 -0.082311399 0.31350011
-0.08061488 -0.078216694 0.31400001
-0.07782872 -0.077025473 0.31011111
-0.051814087 -0.077581644 0.31086212
-0.048960481 -0.077384964 0.31344005
-0.080951773 -0.070937321 0.31333336
-0.077995718 -0.071813628 0.31071058
-0.074561432 -0.070183203 0.31
-0.0556283 -0.070350751 0.31
-0.052176982 -0.072278604 0.31131092
-0.049029812 -0.073047176 0.31366667
-0.081039153 -0.068033986 0.31400001
-0.077649869 -0.067558452 0.31186271
-0.073256917 -0.066556871 0.31037149
-0.069534935 -0.065156713 0.31
-0.061133511 -0.065443933 0.31
-0.056925926 -0.066806838 0.31052953
-0.052849721 -0.067913219 0.31252831
-0.076607235 -0.06315209 0.31325808
-0.072618999 -0.062558897 0.31229091
-0.067568041 -0.062106714 0.31124139
-0.062417001 -0.062310565 0.31169236
-0.057784066 -0.063388892 0.31280005
-0.054187477 -0.064658679 0.31385717
-0.071710728 -0.059544202 0.31380001
-0.068237193 -0.059454348 0.31356254
-0.063219413 -0.059887823 0.31400001
-0.050736956 -0.090213187 0.31500003
-0.049715444 -0.090213187 0.31500003
-0.050481576 -0.089191675 0.31500003
-0.047423173 -0.087251037 0.3165192
-0.046623792 -0.082660988 0.31668627
-0.044657081 -0.081660464 0.31900001
-0.081382364 -0.07795503 0.31500003
-0.046760749 -0.07768888 0.31645095
-0.047707126 -0.072563179 0.31695002
-0.081878453 -0.067123145 0.3154667
-0.050987091 -0.066637293 0.31633332
-0.049396701 -0.068586335 0.31788889
-0.080814391 -0.063555658 0.3167778
-0.078372151 -0.061836671 0.31568184
-0.07448715 -0.060078543 0.31500003
-0.06095209 -0.060078543 0.31500003
-0.056919817 -0.061031643 0.31567734
-0.053204831 -0.062981561 0.3170417
-0.076664217 -0.058444496 0.31639999
-0.072735243 -0.057311635 0.31701696
-0.067470543 -0.05733528 0.31691071
-0.062620327 -0.057645697 0.31675413
-0.05793453 -0.058715321 0.31772503
-0.044624116 -0.085764691 0.32000002
-0.044421051 -0.082579449 0.32050005
-0.045380794 -0.076792665 0.32000002
-0.044615977 -0.077905834 0.32111767
-0.046104893 -0.071784943 0.3208572
-0.044728443 -0.072940789 0.32200003
-0.047636583 -0.067286856 0.32154724
-0.0447625 -0.069305122 0.32350001
-0.051750958 -0.061762094 0.32139474
-0.049374554 -0.063692577 0.32280001
-0.072469823 -0.055324666 0.32000002
-0.066935271 -0.05532467 0.32000005
-0.06191225 -0.055569798 0.32041666
-0.057412501 -0.056774113 0.32136369
-0.053745735 -0.058644269 0.3224
-0.06806656 -0.05397661 0.3216522
-0.062420446 -0.054509848 0.322
-0.046140168 -0.066635795 0.32553849
-0.044970054 -0.068572938 0.32500002
-0.050818808 -0.060817614 0.32533336
-0.048086315 -0.062543944 0.32571432
-0.052734807 -0.058086671 0.3260417
-0.049601465 -0.059533566 0.32600001
