# .PCD v0.7 - Point Cloud Data file format
VERSION 0.7
FIELDS x y z
SIZE 4 4 4
TYPE F F F
COUNT 1 1 1
WIDTH 109
HEIGHT 1
VIEWPOINT 0 0 0 1 0 0 0
POINTS 109
DATA ascii
-0.075836442 -0.050174054 0.25400001
-0.071957029 -0.051662706 0.25371113
-0.067610599 -0.051884778 0.25378942
-0.064510614 -0.050956566 0.25399998
-0.080284409 -0.046261489 0.25399998
-0.077299356 -0.04721459 0.25343758
-0.072501086 -0.047444299 0.25247851
-0.067542888 -0.047406115 0.25248477
-0.063504606 -0.047114544 0.25366667
-0.080711231 -0.042453758 0.25400007
-0.077571414 -0.042258047 0.252803
-0.072595157 -0.042354941 0.25180015
-0.067352965 -0.042349722 0.2517668
-0.062599748 -0.042333096 0.25347665
-0.080688283 -0.037656516 0.25400007
-0.077470265 -0.037418917 0.25311604
-0.072585329 -0.037579201 0.25206274
-0.067431495 -0.037516892 0.25227019
-0.063114971 -0.037698425 0.25374994
-0.080243222 -0.034853294 0.25400001
-0.076962605 -0.033735197 0.2538293
-0.072366245 -0.033099141 0.253481
-0.067719765 -0.033465065 0.25368336
-0.064043857 -0.034441449 0.25399998
-0.077133387 -0.055195473 0.25666669
-0.074856237 -0.055052105 0.25600001
-0.066647351 -0.056062724 0.25552636
-0.062846407 -0.056531228 0.25761005
-0.059355188 -0.055277292 0.259
-0.08041846 -0.051067233 0.25600001
-0.077788368 -0.052617636 0.25559694
-0.073041297 -0.053881068 0.25502509
-0.066928431 -0.054216858 0.25500008
-0.062278569 -0.052585248 0.256129
-0.058320757 -0.052083366 0.2581186
-0.085427552 -0.045752212 0.257
-0.082735077 -0.047197856 0.25625002
-0.079407334 -0.049461953 0.25500003
-0.061207641 -0.047993667 0.25509533
-0.057442497 -0.047445558 0.25708506
-0.086112611 -0.042497594 0.25735134
-0.083506644 -0.042187121 0.25579417
-0.060187805 -0.043069072 0.25500005
-0.057331394 -0.042456359 0.25673828
-0.054735683 -0.042783614 0.25900003
-0.085757524 -0.037786331 0.25762498
-0.083090678 -0.037171368 0.2554194
-0.06069041 -0.037075214 0.25512508
-0.057762317 -0.037570342 0.25726086
-0.085484251 -0.032297049 0.25819045
-0.082349628 -0.032590106 0.25663239
-0.07810317 -0.031647693 0.25529271
-0.072720446 -0.030700771 0.25500008
-0.066860236 -0.031258408 0.25500008
-0.062213223 -0.032461233 0.25609893
-0.058860414 -0.033602964 0.25812119
-0.085602418 -0.029660005 0.259
-0.082366154 -0.0285415 0.25872546
-0.077401079 -0.027576393 0.25773746
-0.07239943 -0.02738077 0.25705659
-0.067600027 -0.027397523 0.25729892
-0.063243382 -0.028310061 0.25800011
-0.072467133 -0.024200587 0.25900003
-0.06929414 -0.024200585 0.259
-0.060999498 -0.0585359 0.26035494
-0.057590373 -0.057075728 0.26172361
-0.054936223 -0.05634442 0.264
-0.056076851 -0.052894454 0.26114589
-0.053938225 -0.051940709 0.26358062
-0.055685446 -0.048576754 0.26050001
-0.053418759 -0.047313266 0.26211393
-0.053058565 -0.042493097 0.2619884
-0.055946406 -0.036311269 0.26042107
-0.053601578 -0.037847836 0.26226324
-0.060146462 -0.030477151 0.26000005
-0.056855936 -0.032206982 0.2615889
-0.05391087 -0.033381853 0.26358062
-0.081740253 -0.026145529 0.26031825
-0.078414798 -0.025312832 0.26000002
-0.065908015 -0.025137177 0.26000005
-0.061652713 -0.026591357 0.26091671
-0.058370583 -0.028150681 0.2626721
-0.080939136 -0.023022836 0.2621364
-0.077356108 -0.022258129 0.26180717
-0.072427168 -0.022139238 0.26184055
-0.067565113 -0.02258613 0.26186076
-0.063097224 -0.023691801 0.26269048
-0.076877609 -0.01979541 0.26385713
-0.052410886 -0.052180197 0.26544118
-0.051022377 -0.047839891 0.2658529
-0.049072858 -0.046889108 0.26703712
-0.050800685 -0.04246565 0.26597437
-0.048942886 -0.042301159 0.26843181
-0.051101413 -0.037220687 0.26681131
-0.048743207 -0.038272947 0.26890913
-0.052442908 -0.032496002 0.26701379
-0.056564309 -0.026880622 0.26621819
-0.053973068 -0.028524393 0.26765519
-0.072570398 -0.020034688 0.26500002
-0.066852093 -0.020440156 0.26535997
-0.062290449 -0.021894416 0.26685485
-0.058791675 -0.024007179 0.26721212
-0.05005569 -0.03529761 0.27000001
-0.048450463 -0.036209676 0.27000001
-0.050743293 -0.031959709 0.27029628
-0.04980167 -0.031913042 0.27100003
-0.055601053 -0.025520269 0.27000004
-0.0528621 -0.02739073 0.27042234
-0.054415505 -0.024882434 0.27100003
