# .PCD v0.7 - Point Cloud Data file format
VERSION 0.7
FIELDS x y z
SIZE 4 4 4
TYPE F F F
COUNT 1 1 1
WIDTH 133
HEIGHT 1
VIEWPOINT 0 0 0 1 0 0 0
POINTS 133
DATA ascii
-0.0013085236 -0.041370537 0.24399999
0.0021561433 -0.041937139 0.24400012
-0.0015663324 -0.038061682 0.24400011
0.0016718211 -0.038228717 0.24400012
-0.010498676 -0.050586008 0.24900004
-0.007204738 -0.051913712 0.24842183
-0.0025183707 -0.052356001 0.24760227
0.0024415036 -0.052111194 0.247315
0.0071149529 -0.051825996 0.24813883
0.01063044 -0.050451424 0.24900001
-0.011695656 -0.046969812 0.24860869
-0.0076678949 -0.047486462 0.24699998
-0.0025824837 -0.047444221 0.24569257
0.0024343943 -0.047325768 0.2454304
0.0074362787 -0.047484588 0.24659139
0.011871593 -0.046882551 0.24849148
-0.012192652 -0.042445429 0.2480281
-0.0075802454 -0.042598151 0.24590814
-0.0033539804 -0.04302004 0.24499992
0.0032508108 -0.043740407 0.24499992
0.0073270439 -0.042564034 0.24553083
0.012318629 -0.042500958 0.24786657
0.015206171 -0.040223319 0.24900001
-0.012031136 -0.037687473 0.24811997
-0.0077097528 -0.03745402 0.24606331
-0.0035433408 -0.036791764 0.24501808
0.0030747962 -0.03655193 0.24499992
0.0074023935 -0.037464846 0.24555902
0.012247646 -0.037535179 0.24774747
0.015206171 -0.03941584 0.24900001
-0.011157385 -0.033068255 0.24877423
-0.0075128074 -0.032307159 0.24741472
-0.0025749533 -0.032493211 0.24585161
0.0024359177 -0.0325283 0.2455686
0.007490248 -0.03235165 0.24692918
0.011758356 -0.033053089 0.24854901
-0.0066931839 -0.028637087 0.24870974
-0.0025002253 -0.028247286 0.24783112
0.0024431618 -0.028437262 0.2480302
0.0065955697 -0.028978035 0.24857582
-0.012162357 -0.056232758 0.25327277
-0.0083198948 -0.056659553 0.25187185
-0.00252367 -0.055383272 0.25
0.0027741785 -0.056041896 0.25095001
0.0078827003 -0.056851752 0.25265303
0.011249186 -0.056188084 0.25326931
-0.016332604 -0.051641859 0.25293556
-0.012672942 -0.052562989 0.25144124
-0.008503872 -0.054211497 0.25010526
-0.00074457901 -0.054977912 0.25
0.0024172487 -0.05497792 0.25
0.0083104344 -0.053903267 0.25022727
0.012492363 -0.052517541 0.25174326
0.01624354 -0.051845845 0.25359464
-0.016996896 -0.047229312 0.25228989
-0.013767038 -0.047992662 0.25032255
0.013976323 -0.048105385 0.25036845
0.017056976 -0.046974495 0.25244072
-0.020628175 -0.04236953 0.25400004
-0.01757977 -0.042341582 0.25179175
-0.014655886 -0.042927593 0.25
0.014816839 -0.043087278 0.25
0.017680462 -0.04237105 0.25193983
0.020041851 -0.041678209 0.25400001
-0.017384468 -0.037628803 0.25201374
-0.014467292 -0.03714196 0.25
0.0147718 -0.036646523 0.25
0.01748297 -0.037634864 0.25192687
0.020041849 -0.039109059 0.25400001
-0.020319287 -0.03361775 0.25400001
-0.017092602 -0.032868993 0.25281256
-0.013195233 -0.031929541 0.25068966
0.013642053 -0.031843483 0.25074077
0.016681233 -0.032961335 0.25275439
-0.015956815 -0.029188499 0.25385714
-0.012270971 -0.027840653 0.25230989
-0.0080099357 -0.026660966 0.2508226
-0.0027565965 -0.025804307 0.25012499
0.0026082366 -0.025911579 0.25023684
0.0077698361 -0.026798423 0.25094298
0.01182889 -0.027987869 0.25249255
0.015236951 -0.029361984 0.25400001
-0.010846775 -0.02476301 0.25400001
-0.0070722988 -0.023822473 0.25323257
-0.0022514425 -0.023413396 0.25211275
0.0023804663 -0.023301437 0.25234854
0.0069110147 -0.023900703 0.25319055
0.010157488 -0.024968937 0.25400001
-0.0057313703 -0.060882516 0.25799999
-0.0022790565 -0.061234303 0.25799999
0.0022077167 -0.060765754 0.25719997
0.0060865562 -0.060240746 0.25600001
-0.0059743365 -0.059850991 0.25700003
-0.0024322781 -0.059850991 0.257
0.0030752975 -0.059450191 0.2561667
0.0067322738 -0.059148699 0.25507697
0.018053405 -0.05028889 0.25500003
-0.020399285 -0.046360929 0.25500003
-0.019985816 -0.046774399 0.25500003
0.018689513 -0.048094317 0.25500005
0.020304516 -0.04652172 0.25500003
-0.021108093 -0.042669233 0.25500003
0.021057952 -0.042639699 0.25500008
-0.021230998 -0.037589319 0.25610718
-0.019985816 -0.037471328 0.25500003
0.019707283 -0.036093101 0.25500005
0.02121976 -0.037386391 0.25567389
-0.020824872 -0.032830674 0.25605887
-0.019106532 -0.031254172 0.25585717
0.018512193 -0.0320764 0.25561541
0.021066545 -0.032915529 0.25744998
-0.020859262 -0.02952002 0.259
-0.01744912 -0.027353847 0.25720003
-0.01378197 -0.02574753 0.2554667
0.013510957 -0.02627738 0.25591895
0.016955374 -0.027758097 0.25731885
-0.016007081 -0.023949567 0.25821048
-0.012199218 -0.023229402 0.25730613
-0.0077564269 -0.021458678 0.25648975
-0.0025690401 -0.020845456 0.2555173
0.0026677751 -0.020917764 0.25548393
0.0078378692 -0.021620577 0.25670484
0.012017772 -0.023386408 0.25751853
0.015396905 -0.024200585 0.259
-0.0067169676 -0.019647656 0.25850001
-0.0022456748 -0.019305658 0.25814697
0.0023558859 -0.01944254 0.25813785
0.0058086263 -0.019786714 0.25840002
0.016510297 -0.025347965 0.26000002
-0.01295794 -0.022017507 0.26000002
0.0094488803 -0.020183647 0.26000002
0.01039743 -0.020499829 0.26000002
0.01587793 -0.024294022 0.26000002
