# .PCD v0.7 - Point Cloud Data file format
VERSION 0.7
FIELDS x y z
SIZE 4 4 4
TYPE F F F
COUNT 1 1 1
WIDTH 150
HEIGHT 1
VIEWPOINT 0 0 0 1 0 0 0
POINTS 150
DATA ascii
0.0066503109 -0.010049991 0.17900001
-0.00091405801 -0.005959427 0.17899995
0.00264792 -0.0071444344 0.17861584
0.0073621892 -0.0073841331 0.1785001
0.011966011 -0.0066524409 0.17879187
0.015284939 -0.0052610384 0.17900001
-0.0019953807 -0.0022372003 0.17860781
0.0026432979 -0.0024222708 0.17742851
0.0075066495 -0.0023681547 0.17716303
0.012528432 -0.0024687166 0.17799504
0.016145365 -0.0020464866 0.17897253
-0.0020802913 0.0024330826 0.17850009
0.0027121077 0.0026022131 0.17722858
0.0075907419 0.0026901506 0.17699988
0.012631857 0.0025141486 0.17772923
0.016343258 0.0024665168 0.17893097
-0.0012875313 0.0066748061 0.17887497
0.0024972223 0.007522691 0.17826118
0.0073459502 0.0076332078 0.17786533
0.012269289 0.0073003322 0.17850015
0.015830588 0.0059596212 0.17899996
0.0031860941 0.010689698 0.17899995
0.0073727551 0.010952417 0.17899993
0.011014271 0.010667586 0.17899996
-0.0059311455 -0.010854233 0.18371432
-0.002271042 -0.011890592 0.18260933
0.0025908421 -0.012134711 0.18129374
0.0076291901 -0.012254479 0.18120398
0.012404384 -0.012275797 0.18188618
0.016734742 -0.011600584 0.18323331
-0.010244282 -0.0054079955 0.18400002
-0.0071598305 -0.0072721336 0.1826259
-0.002805545 -0.0077261399 0.18056491
0.00095563725 -0.0092143388 0.18000004
0.0098249698 -0.0095224138 0.18000001
0.013383752 -0.0086348914 0.18012707
0.017548367 -0.0074747349 0.18137492
0.021127544 -0.006899694 0.18343332
-0.010512108 -0.0022823322 0.18363337
-0.0073199528 -0.0025909389 0.18135621
-0.0042694849 -0.003782481 0.18000004
0.018393293 -0.0028077636 0.18034622
0.021925656 -0.0024858636 0.18261024
-0.010736221 0.0022456336 0.18365309
-0.007352544 0.0024541703 0.18119504
-0.0045211222 0.0037909369 0.18000004
0.018772194 0.0027037689 0.18020278
0.021993216 0.0024313843 0.18234387
-0.01034373 0.006045206 0.18400002
-0.0074022636 0.0073467102 0.18225843
-0.0034001756 0.0078903167 0.18021603
0.014559603 0.0091242604 0.18000002
0.017847663 0.0076094186 0.18077397
0.021558832 0.0071985447 0.18301019
-0.0063355295 0.011459555 0.18335001
-0.002409236 0.012414994 0.18174401
0.0023309586 0.013037346 0.18063423
0.0075601502 0.013509377 0.18045872
0.012708166 0.012688044 0.18071969
0.01724473 0.01219939 0.18249999
0.021092404 0.011112665 0.18366668
0.02536637 0.013487439 0.18333337
-0.0016507978 0.015956905 0.18377502
0.0027664076 0.016686767 0.18303776
0.007579009 0.016828062 0.18275408
0.012145506 0.016520558 0.18306816
0.015714685 0.015661115 0.18383336
-0.0061334246 -0.015599012 0.18870592
-0.0020302474 -0.016173296 0.18739349
0.0025837056 -0.016319109 0.18716006
0.0074970066 -0.016329039 0.18711545
0.012522872 -0.016296333 0.18692409
0.017363906 -0.016178455 0.18808337
0.020224901 -0.015310405 0.18900001
-0.011410009 -0.011182729 0.18828131
-0.0077510555 -0.012713524 0.18664221
-0.0033821024 -0.014366854 0.18527776
0.0026201049 -0.014886384 0.18499999
0.007188193 -0.014886386 0.18499999
0.014597408 -0.014886386 0.185
0.018260894 -0.013384173 0.18579456
0.022081319 -0.011985824 0.1876078
-0.012276391 -0.0076001822 0.18715255
-0.0093184831 -0.0088773808 0.18528
0.02326729 -0.0079545556 0.18611886
0.026091455 -0.0063317828 0.1876957
-0.01511947 -0.0031339645 0.18900001
-0.012830145 -0.0026551727 0.18607531
0.024425974 -0.0029586998 0.18511425
0.026571155 -0.0024350167 0.18715955
-0.01511947 0.0015445668 0.18900001
-0.013092034 0.0025492813 0.18601117
0.024611449 0.0026489017 0.18506446
0.026756253 0.002526727 0.1870902
-0.012321103 0.0075222319 0.18646882
-0.0097666802 0.0092110634 0.185
0.023875875 0.0080438731 0.18569356
0.026702443 0.0072962898 0.18776281
-0.011435631 0.011753605 0.1880334
-0.0081791254 0.013080185 0.18595128
0.019319667 0.01420381 0.18531577
0.022688419 0.012577121 0.18662514
0.02583766 0.011545505 0.18838467
-0.010216205 0.015130696 0.18900001
-0.0068875924 0.016686864 0.18780002
-0.0027974753 0.01812044 0.18629092
0.0022595394 0.019099768 0.18529414
0.0075487229 0.0193481 0.1852105
0.012907427 0.01889204 0.18570837
0.017474536 0.017520599 0.18695119
0.021017307 0.015885737 0.18795002
-0.0017726732 0.020941261 0.18863644
0.0026952121 0.021322241 0.18772735
0.0073986361 0.021427969 0.18748747
0.012207197 0.021225387 0.18806897
0.015844371 0.020781888 0.18883336
-0.0011052692 -0.020584507 0.19362502
0.0017814166 -0.020461453 0.19400001
0.0080529824 -0.020387989 0.19400001
0.012607913 -0.020736912 0.19339482
-0.00686573 -0.016771229 0.19013642
-0.0026812151 -0.018543217 0.19124325
0.0026389298 -0.018864036 0.19155733
0.0075455247 -0.018876661 0.19139676
0.012549204 -0.018836243 0.19109379
0.01682139 -0.018348431 0.19038892
0.020669326 -0.015728829 0.19000003
-0.011823743 -0.012711952 0.19032435
-0.0099621834 -0.01467257 0.19000001
0.021745611 -0.014335437 0.19012502
0.025158426 -0.010051438 0.19000001
-0.015601598 -0.0066729062 0.19173685
-0.014583318 -0.0080709523 0.19000003
0.02485035 -0.0093325954 0.19000003
0.025290839 -0.0097946431 0.19100001
-0.015847825 -0.0023962124 0.19115788
0.027931105 -0.0028116636 0.19000001
-0.015663181 0.0024673082 0.19073914
-0.015496738 0.0063716993 0.19100001
-0.014660336 0.0079709776 0.19000003
-0.012424122 0.01288727 0.1902667
-0.01051564 0.015616265 0.19025001
-0.0082758768 0.017635338 0.19018753
0.01909939 0.019503513 0.19040003
0.020645203 0.018389577 0.19100001
-0.002164233 0.021948516 0.19021055
0.017324721 0.021065643 0.19106251
0.0029657218 -0.021510834 0.19538462
0.0075244717 -0.021787588 0.19546773
0.010608585 -0.021962011 0.19499999
