# .PCD v0.7 - Point Cloud Data file format
VERSION 0.7
FIELDS x y z
SIZE 4 4 4
TYPE F F F
COUNT 1 1 1
WIDTH 116
HEIGHT 1
VIEWPOINT 0 0 0 1 0 0 0
POINTS 116
DATA ascii
0.0036878835 -0.10069083 0.32900003
0.0060278201 -0.10081813 0.32900003
-0.00017968036 -0.096089765 0.32900003
0.002620969 -0.09748403 0.32900023
0.0073454697 -0.097570926 0.3290002
0.010934009 -0.096178681 0.32900003
-0.00049975456 -0.09283568 0.32900003
0.0024625566 -0.092781827 0.32875532
0.0074572521 -0.092797674 0.32837296
0.011663067 -0.09281791 0.32900012
-0.00017968036 -0.089688286 0.32900003
0.0027538319 -0.088916443 0.32896435
0.0071757399 -0.089071125 0.32886216
0.01140396 -0.089726396 0.32900006
-0.0063012177 -0.10526718 0.333
-0.0029172897 -0.10557082 0.33183336
0.0023434423 -0.10534726 0.3304286
0.0070854137 -0.10525617 0.33014289
0.012640705 -0.10558912 0.33175004
0.016459081 -0.1053367 0.33257145
-0.0072068125 -0.10227346 0.33318424
-0.0025737265 -0.10263316 0.3314082
0.0020777541 -0.1030566 0.3301219
0.0076841828 -0.10300809 0.32999995
0.012418106 -0.1026952 0.3310197
0.017629661 -0.10231987 0.33244234
0.021172324 -0.10163767 0.33388892
-0.010472133 -0.095113061 0.33400002
-0.0074462662 -0.097398326 0.33274999
-0.002550374 -0.09763106 0.3306042
0.00056888344 -0.099431776 0.33000001
0.0093620084 -0.099503122 0.33000004
0.012820677 -0.097813316 0.33014286
0.017649803 -0.097479962 0.33177191
0.021463066 -0.097322889 0.33372736
-0.010472133 -0.093217582 0.33400002
-0.0074896938 -0.092431232 0.33242854
-0.0029830509 -0.092482351 0.33030769
0.013985274 -0.092425078 0.32999998
0.017627539 -0.092519067 0.33150002
0.021431142 -0.092416219 0.33365008
-0.0067906952 -0.08756122 0.33311629
-0.0025643343 -0.08750847 0.33105454
0.0018913408 -0.086567931 0.330129
0.007680235 -0.086643524 0.33013153
0.012540673 -0.087242305 0.33063635
0.017514572 -0.087569639 0.3323907
0.020922925 -0.088952914 0.33375001
-0.0055965404 -0.083931446 0.33390006
-0.0019739973 -0.082744539 0.33297724
0.0025192995 -0.08258827 0.33198273
0.007254506 -0.082506612 0.33203173
0.012425096 -0.082680769 0.33275864
0.01646472 -0.083657883 0.33355561
-0.00018241107 -0.07994926 0.33400002
0.0031271488 -0.079708561 0.33400005
0.0073543596 -0.079497956 0.33400008
0.011009919 -0.07994926 0.33400005
-0.0099603012 -0.10110127 0.33500001
0.022223458 -0.10069389 0.33500001
-0.011164593 -0.096490823 0.33566666
-0.0099603012 -0.098928533 0.33500001
0.023374265 -0.097380973 0.33511767
-0.011286611 -0.091823272 0.33584619
-0.0099603012 -0.090509154 0.33500001
0.023713432 -0.092473082 0.33577779
0.026491586 -0.092128724 0.33771425
-0.011726875 -0.087790817 0.33735484
-0.0092759617 -0.086731784 0.33533335
0.019562703 -0.085481755 0.33516669
0.022732425 -0.087641969 0.33646944
0.026244389 -0.08827965 0.33804345
-0.011003152 -0.083592333 0.33827785
-0.007429563 -0.082118101 0.33668894
-0.0031524573 -0.080703609 0.3352308
0.01366828 -0.080369689 0.33500001
0.017833382 -0.081880823 0.33586496
0.021567026 -0.082836516 0.33832434
-0.0059697838 -0.079176046 0.33827275
-0.0021354666 -0.077720925 0.33732611
0.002540716 -0.077345617 0.3361702
0.0075544743 -0.077163413 0.33597732
0.012368043 -0.077403001 0.33680779
0.016807398 -0.078390084 0.33802858
0.020427544 -0.079497091 0.33900002
-0.00018514176 -0.074550048 0.33900002
0.0027962152 -0.074262448 0.33834791
0.0072091278 -0.074215084 0.33828005
0.011098953 -0.074634805 0.33855557
-0.013968013 -0.095167793 0.34
-0.0150706 -0.092043802 0.34
-0.01424366 -0.092411332 0.34
-0.0150706 -0.089654863 0.34
-0.014166012 -0.087903768 0.34033334
0.024622498 -0.08579582 0.34
-0.011222271 -0.081832252 0.34033334
-0.0092820227 -0.080282889 0.34
0.023768149 -0.08184582 0.34058341
-0.010227892 -0.078996278 0.34400001
-0.0074850549 -0.077555962 0.34200001
-0.0038491844 -0.076053336 0.34036362
0.018198423 -0.076328553 0.34128124
0.021285109 -0.078692846 0.34118754
-0.0056875581 -0.07407669 0.34349999
-0.0022619418 -0.073249198 0.34223807
0.0024081969 -0.071891718 0.34157896
0.0075864536 -0.071901463 0.34176314
0.012665411 -0.073235936 0.3418372
0.016404932 -0.074324958 0.34284618
-0.01048659 -0.077757724 0.34562501
-0.0090724118 -0.076036647 0.34512502
0.019949991 -0.075310111 0.34500003
0.021200813 -0.075857557 0.3471429
-0.0065371646 -0.072974302 0.34541667
0.017614136 -0.073306419 0.34611121
0.02042493 -0.074084029 0.34712505
