# .PCD v0.7 - Point Cloud Data file format
VERSION 0.7
FIELDS x y z
SIZE 4 4 4
TYPE F F F
COUNT 1 1 1
WIDTH 135
HEIGHT 1
VIEWPOINT 0 0 0 1 0 0 0
POINTS 135
DATA ascii
-0.041733559 0.0029810236 0.17399983
-0.037988406 0.0030634799 0.17399983
-0.041829061 0.0071026776 0.17399983
-0.038261566 0.0069416487 0.17399985
-0.050614718 -0.0057116738 0.17899996
-0.047192145 -0.0064829295 0.17806751
-0.042486165 -0.0067237937 0.17715332
-0.037469506 -0.0067705205 0.17727634
-0.033072311 -0.0062985132 0.17856182
-0.029992435 -0.0051159188 0.17900001
-0.05124696 -0.0023396064 0.178091
-0.04733184 -0.0024144966 0.1763975
-0.042419028 -0.0023868035 0.17535736
-0.037512008 -0.0024399881 0.17547086
-0.032638464 -0.0024038022 0.17702252
-0.028889934 -0.0018360387 0.17864636
-0.052220784 0.0028399182 0.17790659
-0.0474305 0.0027010604 0.17553112
-0.04395666 0.0016092615 0.17500009
-0.036479656 0.0015345232 0.1750001
-0.032655135 0.0026684573 0.1758652
-0.028219638 0.0026007658 0.17812973
-0.052007318 0.0073954086 0.17797066
-0.047378264 0.0074135172 0.17560755
-0.043913133 0.008558847 0.17500007
-0.03654433 0.0081832316 0.17500013
-0.032654572 0.0074942005 0.17587364
-0.028233074 0.0074139917 0.17821957
-0.05095559 0.01209094 0.17842858
-0.047307808 0.012436856 0.17688198
-0.042372476 0.012352764 0.17568652
-0.037528418 0.012446132 0.17581782
-0.032573007 0.012430406 0.17702347
-0.028883837 0.011598268 0.17872304
-0.050018966 0.015491088 0.17900001
-0.046983544 0.016349362 0.1785077
-0.042360384 0.017397795 0.17800005
-0.037591022 0.017032607 0.17805812
-0.033410277 0.016750043 0.17860006
-0.051553812 -0.010759896 0.18345718
-0.047520608 -0.010752722 0.18324004
-0.042418521 -0.01088579 0.18295316
-0.037348941 -0.011026268 0.18273239
-0.032758739 -0.010962052 0.18302895
-0.029835721 -0.010430166 0.18400002
-0.056463853 -0.0061338032 0.18370372
-0.052569527 -0.0077273953 0.1817757
-0.047550295 -0.0089250412 0.1806452
-0.042486593 -0.0092211086 0.18061908
-0.037446957 -0.0092583029 0.18038455
-0.031953741 -0.0083712377 0.1808131
-0.027934292 -0.0070694191 0.18219455
-0.024863277 -0.0054079955 0.18400002
-0.056843005 -0.0026002075 0.18241459
-0.054133788 -0.002571183 0.18066004
-0.026651742 -0.0028474552 0.18096504
-0.024139544 -0.0022333327 0.18347616
-0.056558326 0.0023405375 0.18105265
-0.0544459 0.0013532477 0.18000004
-0.02572093 0.002055615 0.18025929
-0.023665953 0.0024695429 0.18271999
-0.056740236 0.0072851432 0.18144928
-0.054597743 0.0080341455 0.18000002
-0.025704732 0.0077218995 0.18032265
-0.023606354 0.0072544403 0.18262964
-0.056242786 0.011909122 0.18233341
-0.053628374 0.012743684 0.18080488
-0.030257281 0.014896622 0.18000001
-0.0268222 0.012901736 0.18082783
-0.024045147 0.012113508 0.18301369
-0.055518411 0.015401693 0.18400002
-0.052007463 0.017239487 0.18216904
-0.047847498 0.018583922 0.18051431
-0.043634243 0.019955546 0.18000001
-0.037424088 0.019674495 0.18000001
-0.031675588 0.018193934 0.18110482
-0.027860899 0.017072046 0.18263233
-0.024692792 0.015412348 0.18400003
-0.050337516 0.020622898 0.18333337
-0.047277544 0.021231601 0.18260296
-0.042313557 0.022302572 0.18185712
-0.037469916 0.022233263 0.18207383
-0.032902732 0.021386292 0.18305093
-0.029686548 0.020299554 0.18400002
-0.050514918 -0.015399788 0.18900001
-0.048606545 -0.015598287 0.18900007
-0.042291731 -0.015208253 0.18900001
-0.037241623 -0.01528487 0.18900004
-0.032907482 -0.01528735 0.18865003
-0.050948787 -0.013123571 0.18674999
-0.047579158 -0.013172484 0.18691348
-0.042559184 -0.013418081 0.18692137
-0.037617482 -0.013406006 0.18644445
-0.032170869 -0.01326675 0.18666676
-0.028470574 -0.011946113 0.1875052
-0.055295199 -0.0082870843 0.185
-0.026248779 -0.0087249307 0.18613562
-0.023626421 -0.0068661943 0.18760005
-0.022031168 -0.0025280935 0.18690836
-0.021237131 0.0024554648 0.18623014
-0.019610243 0.0030128541 0.18868427
-0.021360254 0.0076395557 0.18638244
-0.019485179 0.0067396085 0.18877424
-0.022004519 0.012232359 0.18705454
-0.017877556 0.010227431 0.18900001
-0.056195103 0.015838932 0.18500002
-0.054695264 0.017060231 0.185
-0.026079925 0.018821988 0.18559521
-0.023631262 0.017131437 0.18719192
-0.046936184 0.023408595 0.18527274
-0.044736858 0.024842985 0.186
-0.035950758 0.024639754 0.1850909
-0.032034252 0.023625536 0.18624398
-0.027835045 0.021615006 0.1873571
-0.024568468 0.02039149 0.18900001
-0.041602198 0.025672164 0.18592593
-0.046258822 -0.016415698 0.19048145
-0.042457517 -0.017106401 0.19146527
-0.037690286 -0.016993241 0.19102301
-0.033041261 -0.016313922 0.19034289
-0.029524978 -0.015288721 0.19000001
-0.026807349 -0.01237077 0.19025004
-0.024184547 -0.010565108 0.19092859
-0.02218136 -0.0073501719 0.19116668
-0.019717919 -0.0053318068 0.192
-0.020510711 -0.0035630031 0.19033337
-0.019621888 -0.0025645939 0.1917105
-0.018778015 0.0026162541 0.19125997
-0.018759459 0.0073642465 0.19150878
-0.02057836 0.013308089 0.19054548
-0.019837426 0.012081915 0.19205263
-0.021950293 0.017138639 0.19167304
-0.023550907 0.021772888 0.19135186
-0.019346422 -0.0015192271 0.19600001
-0.018978564 0.00049478852 0.19636364
