# .PCD v0.7 - Point Cloud Data file format
VERSION 0.7
FIELDS x y z
SIZE 4 4 4
TYPE F F F
COUNT 1 1 1
WIDTH 152
HEIGHT 1
VIEWPOINT 0 0 0 1 0 0 0
POINTS 152
DATA ascii
0.043751713 -0.00085079338 0.16900006
0.047510412 -0.0014093679 0.16900003
0.05159726 -0.00094317342 0.16899996
0.039641336 0.0040482976 0.16900001
0.042646393 0.002638869 0.168928
0.047402844 0.0024963825 0.16827545
0.052472338 0.002539946 0.168835
0.05526077 0.0037038091 0.16900001
0.039641336 0.0054914961 0.16900001
0.042758044 0.0072864592 0.16892289
0.047430739 0.0075189006 0.16849259
0.052155752 0.0072592204 0.16890879
0.055260766 0.0050347876 0.16900001
0.044117078 0.010497021 0.169
0.04743075 0.010769021 0.16900001
0.050693687 0.010469618 0.16900001
0.034701291 -0.0056313253 0.17400001
0.03782057 -0.0065359958 0.17334734
0.042503912 -0.0070148436 0.17238569
0.047460657 -0.0071489285 0.17193519
0.05240868 -0.0072987354 0.17251226
0.056547642 -0.0066666342 0.17342642
0.033723276 -0.0020307235 0.17350958
0.03755315 -0.0025134617 0.17167296
0.042148702 -0.0029132054 0.1703314
0.047425225 -0.0039783115 0.17000005
0.052790985 -0.0031762358 0.17019425
0.057439931 -0.0025619906 0.17168291
0.061115704 -0.0017399988 0.17374538
0.03290819 0.0026828274 0.1730381
0.037344232 0.0025140429 0.17063411
0.040530562 0.00092988205 0.17
0.05476081 0.00037858909 0.17
0.057604142 0.0024461551 0.17073718
0.061481234 0.0027525863 0.17324996
0.033044245 0.0074525047 0.17304775
0.037372157 0.007465933 0.17068101
0.040679872 0.0088891741 0.17000002
0.054443818 0.0088133719 0.17000002
0.057494164 0.0075119436 0.17101173
0.061641723 0.0072825835 0.17344677
0.03388945 0.011981499 0.17355812
0.037567172 0.012419189 0.17191976
0.042262506 0.012557094 0.17044994
0.047464766 0.013107221 0.17014706
0.052574851 0.012530741 0.17041562
0.057412919 0.012411177 0.17233346
0.061070248 0.011172505 0.17389284
0.038029522 0.016217614 0.17349346
0.042665642 0.01713663 0.17255075
0.047411412 0.017389327 0.17219606
0.052235231 0.017225141 0.17263171
0.056339234 0.016205581 0.17356811
0.044093944 0.020277822 0.17400001
0.047292348 0.020397183 0.17399999
0.050500702 0.020136757 0.17400001
0.033886656 -0.010340231 0.17900002
0.037686009 -0.010865962 0.17823732
0.042633917 -0.011069561 0.17772503
0.047588408 -0.011162939 0.17750603
0.052425709 -0.011321629 0.17735705
0.056834858 -0.011496177 0.17770743
0.029541582 -0.0053562983 0.17871431
0.032702953 -0.0071621141 0.17712827
0.037071198 -0.0087326784 0.17586023
0.042333242 -0.0094294949 0.17538893
0.047431406 -0.0095456652 0.17507145
0.052895442 -0.0097544705 0.17499998
0.058218516 -0.0083344411 0.17579015
0.061234958 -0.0067385957 0.17679664
0.028746013 -0.0020170566 0.17798869
0.031392708 -0.0028354586 0.17572896
0.063324146 -0.0023884363 0.17613897
0.065240063 -0.0015575447 0.1785
0.028353717 0.0026330187 0.17731588
0.030549837 0.0023013279 0.17500007
0.06412255 0.0024586122 0.17500013
0.065459616 0.0031763143 0.17509091
0.028349346 0.007399424 0.17748038
0.030655699 0.0077333637 0.175091
0.064140759 0.0074778222 0.17541514
0.065447494 0.0067223208 0.17537498
0.028970571 0.012025118 0.17813241
0.03150567 0.012748745 0.17599137
0.062300313 0.012988252 0.17600004
0.032974135 0.016977062 0.17732581
0.037131578 0.018400723 0.1756852
0.041169744 0.019393774 0.17504346
0.053994987 0.019525368 0.17499998
0.057965349 0.01801414 0.17597084
0.061461911 0.016375139 0.17730615
0.034537498 0.020376787 0.17900001
0.037900083 0.021530753 0.17788246
0.042462442 0.022519631 0.17690204
0.047502425 0.022858132 0.17657973
0.05228287 0.022460455 0.17702392
0.057030275 0.021724576 0.17841054
0.047269341 0.025359232 0.17900001
0.037159715 -0.015170564 0.18400002
0.042586062 -0.015104266 0.18400002
0.047557738 -0.015231053 0.18380001
0.052739058 -0.015682194 0.18363465
0.055312302 -0.015691025 0.18300001
0.029458638 -0.010520257 0.18383336
0.032619089 -0.012303901 0.18260741
0.037339684 -0.013300386 0.1817963
0.04239171 -0.013594411 0.18163536
0.04738171 -0.013691121 0.18139243
0.052473545 -0.013853017 0.18117398
0.056146093 -0.014066058 0.18093754
0.028206486 -0.0073362635 0.18211113
0.03078047 -0.0089453207 0.18055557
0.024555309 -0.0014630413 0.18394446
0.026560321 -0.0027993966 0.18149462
0.024319192 0.0025359869 0.18320757
0.025731483 0.0023668115 0.18082458
0.0243985 0.0070390925 0.18346158
0.025821213 0.0075463965 0.18093108
0.065570422 0.0094485497 0.18000001
0.024960643 0.010971243 0.18400002
0.026815906 0.012597947 0.18190295
0.064727269 0.013113027 0.18000002
0.065672107 0.011833454 0.18100001
0.0286959 0.017112577 0.18232431
0.031130372 0.018729312 0.18082611
0.061908845 0.018912761 0.18118751
0.029435847 0.020399002 0.18400002
0.032869175 0.02167411 0.18224448
0.036970716 0.02374132 0.18079719
0.040616304 0.02462532 0.18000001
0.053688593 0.024561474 0.18014286
0.057353411 0.023233369 0.18000004
0.060923848 0.02078067 0.18047062
0.042624943 0.025845757 0.18092167
0.034470305 -0.01541133 0.185
0.038151391 -0.016587848 0.18527588
0.042523723 -0.0171341 0.18620013
0.047511153 -0.017359789 0.18629646
0.05168362 -0.01720872 0.18537776
0.028711759 -0.011462366 0.18568417
0.030915687 -0.013506532 0.18499997
0.024930364 -0.005014393 0.186
0.026318142 -0.0078739598 0.18569441
0.024123557 -0.0027517551 0.18535998
0.025363404 -0.0044525587 0.18520001
0.023289947 0.0021608518 0.18552379
0.023645418 0.0079440046 0.18550004
0.024394108 0.011607927 0.18537499
0.025494253 0.014309905 0.1855
0.026700607 0.016513972 0.18595003
0.02892427 0.020415314 0.1855
0.032183047 0.02290961 0.185
