# .PCD v0.7 - Point Cloud Data file format
VERSION 0.7
FIELDS x y z
SIZE 4 4 4
TYPE F F F
COUNT 1 1 1
WIDTH 135
HEIGHT 1
VIEWPOINT 0 0 0 1 0 0 0
POINTS 135
DATA ascii
0.064881429 -0.00016152891 0.15900001
0.067577399 -0.00035304515 0.15899996
0.070521034 -0.00025820785 0.15900002
0.059564084 0.0045596268 0.15900001
0.062939599 0.0032023247 0.15862998
0.06741 0.0026068676 0.15808265
0.07233014 0.0027553441 0.15837604
0.075742923 0.0037610438 0.15896872
0.058785807 0.0078834454 0.15883636
0.062507987 0.0076085287 0.15763964
0.067492969 0.0076301503 0.15690865
0.072367616 0.0075797434 0.15722524
0.076692663 0.0078935185 0.15862422
0.058741093 0.012368773 0.15887623
0.062498417 0.012567484 0.15749478
0.067391872 0.012649129 0.15685521
0.07234811 0.01256709 0.15719154
0.076708235 0.012365011 0.1586805
0.05954586 0.015912395 0.15899998
0.06281656 0.017339868 0.15850775
0.067407668 0.017641708 0.15791294
0.072202623 0.01749769 0.15827586
0.075944543 0.016019871 0.15899996
0.064301357 0.020463314 0.15900001
0.06745483 0.02081487 0.15899998
0.070891634 0.020624448 0.15900001
0.058239445 -0.0015920763 0.16291665
0.062493436 -0.0023275558 0.16179806
0.067445017 -0.0027807381 0.16123147
0.072530687 -0.0025015071 0.16128784
0.077051289 -0.0021687164 0.16274813
0.080428824 -0.00066878466 0.1638889
0.054114547 0.0033050014 0.16369438
0.057430726 0.0024862529 0.16136527
0.061503503 0.0011779411 0.16006938
0.074276954 0.00046750437 0.16000001
0.07792066 0.0023554242 0.16081424
0.080871738 0.0026002224 0.16228072
0.05365663 0.007718829 0.1628527
0.056529798 0.0072156838 0.16042849
0.079088069 0.0068761115 0.16003168
0.080888852 0.007658211 0.16092598
0.053616717 0.012507996 0.16256736
0.05647311 0.012824098 0.16029747
0.079129472 0.013101682 0.16013998
0.080807984 0.01241884 0.16114902
0.053854618 0.017219914 0.16318621
0.05730705 0.017672118 0.16099985
0.06086402 0.019020686 0.16005556
0.074477702 0.019489428 0.16
0.07772103 0.01777558 0.16067456
0.080500171 0.017079188 0.16211112
0.054616984 0.020454107 0.16400003
0.058043946 0.021823492 0.16307634
0.062359739 0.022579055 0.16129398
0.067418203 0.02310624 0.16061902
0.072567999 0.022704998 0.16141668
0.076827459 0.021832529 0.16266665
0.059741944 0.025361499 0.164
0.062737614 0.025997678 0.16354874
0.067390308 0.026056828 0.16320929
0.071781956 0.025763482 0.16370735
0.058522869 -0.0058140676 0.1683
0.062452674 -0.0059424178 0.16782434
0.067563362 -0.00612971 0.16751575
0.072601363 -0.0063369703 0.16722307
0.076097369 -0.0064579127 0.16715786
0.053591404 -0.0016911342 0.16767542
0.056690659 -0.0033298542 0.16607036
0.061791725 -0.0047157919 0.16500001
0.078025147 -0.0043708491 0.16509999
0.049605887 0.0040881555 0.16900003
0.051977035 0.0024354847 0.16664524
0.055290516 0.00036745414 0.16500001
0.049155671 0.0077925632 0.1682639
0.051057938 0.0074393577 0.16591534
0.049181215 0.012277753 0.16810144
0.050951619 0.012632701 0.16580954
0.049462199 0.016286656 0.16876189
0.051455162 0.017557556 0.16654064
0.053023994 0.022137256 0.16724192
0.056538325 0.023755681 0.16565385
0.077475339 0.024242515 0.16565382
0.054590929 0.025617111 0.16900001
0.05796542 0.026865389 0.16728371
0.062088836 0.028455663 0.16634263
0.067486309 0.028636344 0.16610992
0.072552443 0.027920093 0.1660589
0.07592538 0.026194952 0.16548775
0.06298361 0.030225208 0.16888891
0.067612976 0.030245094 0.16900001
0.070058122 0.030245092 0.16900001
0.068133973 -0.010074909 0.17400001
0.072440736 -0.010566558 0.17373526
0.054362863 -0.0059154928 0.17331581
0.057474378 -0.0073866681 0.17201568
0.062562644 -0.0083144121 0.17187715
0.067410924 -0.0085133361 0.17166999
0.072527699 -0.0088398661 0.17141241
0.075221799 -0.0089370487 0.17066668
0.049437471 -0.00090278615 0.17308335
0.051893875 -0.0028687925 0.17164005
0.055036455 -0.004858694 0.17
0.048313405 0.002712653 0.17192426
0.05040231 0.00077023607 0.17033333
0.047155321 0.007536178 0.17182739
0.047074698 0.012462392 0.17204091
0.04824435 0.017491914 0.17200002
0.050350469 0.019673843 0.17
0.049230035 0.02134221 0.17276186
0.050995011 0.023192024 0.17104053
0.053204592 0.026589205 0.17190664
0.056647457 0.028716106 0.17108771
0.05885458 0.030558331 0.17132002
0.062468901 0.031060919 0.17041382
0.058759682 -0.010582086 0.175
0.062675826 -0.01118923 0.17575255
0.067489415 -0.011540986 0.17596117
0.07131733 -0.011431526 0.17507145
0.053055201 -0.0066654487 0.17648718
0.056526016 -0.0090242233 0.17519057
0.048814073 -0.0018305174 0.17647067
0.050685808 -0.0041335318 0.17575002
0.046605818 0.0024443187 0.17563273
0.044889376 0.0088155782 0.17900001
0.045659967 0.0077068922 0.17696001
0.04494499 0.012798899 0.17744444
0.045376007 0.012597676 0.17642862
0.046481986 0.017615777 0.17533343
0.048419006 0.022270687 0.17645244
0.050241042 0.024447579 0.17620002
0.052031171 0.027033184 0.17636366
0.045840614 0.0046523493 0.18075001
0.045723375 0.0066414187 0.18115999
0.045140151 0.011053785 0.18000001
