# .PCD v0.7 - Point Cloud Data file format
VERSION 0.7
FIELDS x y z
SIZE 4 4 4
TYPE F F F
COUNT 1 1 1
WIDTH 118
HEIGHT 1
VIEWPOINT 0 0 0 1 0 0 0
POINTS 118
DATA ascii
0.03281286 -0.091780819 0.3087222
0.037315059 -0.091509171 0.30734378
0.042402055 -0.091425315 0.30706257
0.047562089 -0.091746449 0.30838087
0.050824765 -0.091278329 0.30900002
0.028754417 -0.086835146 0.30871874
0.032479819 -0.087375008 0.30757141
0.037220392 -0.087484851 0.30637699
0.04259371 -0.087436132 0.30618018
0.047518585 -0.087473132 0.3073273
0.051750232 -0.087152891 0.30879489
0.024882646 -0.08122994 0.30900002
0.027549464 -0.082421981 0.30821273
0.032404907 -0.082299404 0.30610773
0.037777368 -0.082534753 0.30504775
0.04278351 -0.082450598 0.30505013
0.047770325 -0.082381397 0.30624071
0.052362662 -0.08238402 0.30817994
0.024882648 -0.078187987 0.30900002
0.027411768 -0.077657007 0.30807269
0.032637466 -0.077510059 0.30567166
0.037789546 -0.077520266 0.30500016
0.042858616 -0.077520236 0.30500016
0.047591243 -0.077486739 0.30580389
0.052516971 -0.077716574 0.30801666
0.028187782 -0.073079914 0.30855313
0.032472029 -0.072711989 0.30686748
0.037400939 -0.072373576 0.30597255
0.042606287 -0.072388306 0.30606747
0.047627624 -0.072523497 0.30708939
0.051668797 -0.073409744 0.30852938
0.02972592 -0.069789797 0.30900002
0.033032436 -0.068511978 0.30873525
0.037490427 -0.067706048 0.30818182
0.042339016 -0.067859553 0.30807534
0.046972547 -0.068954021 0.30865389
0.024106182 -0.091411576 0.31285715
0.027860865 -0.092394516 0.31083021
0.030827422 -0.093137525 0.31
0.052307315 -0.091193952 0.31
0.01968479 -0.085599154 0.31400001
0.022566175 -0.087241739 0.3121064
0.026492683 -0.088265419 0.31026474
0.053896941 -0.088341415 0.30999997
0.056102175 -0.086697511 0.31055
0.01906818 -0.082209572 0.31350011
0.022605306 -0.082628854 0.31120008
0.025465822 -0.084508717 0.31
0.054619499 -0.08476004 0.31
0.056991186 -0.082456142 0.31058699
0.060536694 -0.080247954 0.31200001
0.019430446 -0.077318832 0.31376478
0.022367353 -0.077425137 0.31132793
0.05757479 -0.077448063 0.31107953
0.060560942 -0.077369198 0.31212503
0.019515079 -0.073973909 0.31400001
0.02275159 -0.072738752 0.31235713
0.026227789 -0.071274303 0.31053573
0.053245347 -0.071585052 0.31050003
0.05740758 -0.072606973 0.31249222
0.060778823 -0.073267467 0.31325001
0.023911987 -0.068646304 0.31364289
0.027655402 -0.067646988 0.31167799
0.032167811 -0.066277876 0.3104167
0.037490752 -0.065350033 0.31
0.042744316 -0.065571323 0.31021047
0.047898758 -0.06666024 0.31088096
0.052349661 -0.06775637 0.31214553
0.056085702 -0.068935052 0.31370005
0.028648781 -0.064197622 0.3136667
0.032704256 -0.063084193 0.31280005
0.037488088 -0.062464185 0.3119531
0.042570114 -0.062537566 0.31199989
0.0471945 -0.06315738 0.31318185
0.051103897 -0.064698741 0.31387502
0.037550814 -0.059702687 0.31400004
0.04146447 -0.059774686 0.31400004
0.01853073 -0.086051494 0.31555557
0.020258239 -0.088170163 0.31500003
0.017651288 -0.08297696 0.31572729
0.018063694 -0.077355437 0.31533337
0.019137474 -0.072370656 0.31599998
0.020632252 -0.070982017 0.31514293
0.059075754 -0.070804432 0.31500003
0.06009727 -0.070804432 0.31500003
0.01942984 -0.068848938 0.3181667
0.022295406 -0.067228779 0.31660384
0.025706312 -0.06552662 0.31500003
0.054536592 -0.065765314 0.31533337
0.057382166 -0.067669027 0.31662163
0.023511522 -0.064056516 0.31843758
0.027419886 -0.062568717 0.31688234
0.03176723 -0.060748596 0.31570002
0.044263806 -0.060078543 0.31500003
0.048295945 -0.060945094 0.31575003
0.052349046 -0.063048452 0.31689134
0.055859644 -0.064214505 0.31880003
0.029308608 -0.059806965 0.31900001
0.032944836 -0.059007347 0.31739292
0.037432257 -0.058364429 0.31655878
0.04261183 -0.058580168 0.31694281
0.047093857 -0.059198134 0.3176364
0.016688317 -0.080230139 0.32000002
0.014965244 -0.077163845 0.32200003
0.01589974 -0.077441804 0.32147372
0.016084034 -0.074418366 0.32350001
0.019422537 -0.066126652 0.32171431
0.020336038 -0.065623157 0.32025003
0.058025498 -0.065921985 0.32012504
0.01969474 -0.063861713 0.32250002
0.02253977 -0.062349152 0.32171437
0.02637535 -0.060760465 0.32108337
0.053550195 -0.061119374 0.32060006
0.056448299 -0.062990643 0.32056254
0.050493252 -0.059178151 0.32050002
0.016591119 -0.072447121 0.32544446
0.017739527 -0.0693634 0.32500002
0.021955298 -0.060931858 0.32500002
