# .PCD v0.7 - Point Cloud Data file format
VERSION 0.7
FIELDS x y z
SIZE 4 4 4
TYPE F F F
COUNT 1 1 1
WIDTH 147
HEIGHT 1
VIEWPOINT 0 0 0 1 0 0 0
POINTS 147
DATA ascii
0.0034412523 0.0093020471 0.14900008
0.0075825891 0.0089934822 0.14900012
0.011673014 0.0094089285 0.14900006
-0.0016257929 0.013213169 0.14876099
0.002555151 0.012566937 0.14792475
0.0075937468 0.012462888 0.1474926
0.012510655 0.012578889 0.14801823
0.016254693 0.0132809 0.14878385
-0.0056582168 0.018498505 0.14900002
-0.0025295769 0.017491987 0.14812627
0.002595091 0.017533556 0.14665818
0.0075383401 0.017591003 0.14616594
0.012510587 0.017562445 0.14679833
0.01711602 0.017591344 0.14822142
-0.0055880984 0.021633927 0.14899999
-0.0025260025 0.022517888 0.14793552
0.0025241191 0.02249993 0.14655623
0.0075211031 0.022605119 0.14599992
0.012619338 0.022469109 0.14672069
0.017287927 0.022540634 0.14818968
-0.0017891643 0.027081847 0.14865577
0.0026019122 0.027303491 0.14759591
0.0076095229 0.027515758 0.14728434
0.01246881 0.027263729 0.14766251
0.016589355 0.026873108 0.14868754
-0.00032297106 0.03010853 0.149
0.0029288286 0.030945295 0.1489597
0.0075327852 0.031098589 0.14873694
0.011853135 0.030656638 0.14898396
-0.001082919 0.0047484366 0.15400003
0.0026470246 0.0047127651 0.15399998
0.0077539552 0.0046468484 0.15388887
0.012326581 0.0045905742 0.15373909
0.01544744 0.004787676 0.15400003
-0.0064480929 0.0085939309 0.15342696
-0.0023337931 0.0075136423 0.15200849
0.0023252701 0.0069582453 0.15110818
0.0074921492 0.0065267044 0.15106533
0.012692992 0.007095546 0.15114011
0.017229756 0.0078049726 0.15264699
0.020694166 0.0091911042 0.15382613
-0.010476389 0.013519591 0.15392004
-0.0074248957 0.012520657 0.15200455
-0.0033708652 0.011570077 0.15025739
0.00040451391 0.010062749 0.15000001
0.014802991 0.010160035 0.15000001
0.018252248 0.011960119 0.1507203
0.021796342 0.01273567 0.15282206
-0.010979352 0.017287882 0.15328571
-0.0078863231 0.017280763 0.1508716
0.019591058 0.017067462 0.1500209
0.022446003 0.01741486 0.15192941
0.025331348 0.018375877 0.15400003
-0.010903361 0.02220791 0.15346031
-0.007813043 0.022597523 0.15084222
0.019710725 0.022493139 0.15000007
0.022453906 0.022438353 0.15178937
0.025370024 0.021692589 0.15399998
-0.010321941 0.025962515 0.15400003
-0.0073128752 0.027379304 0.15204062
-0.0039037431 0.028522935 0.15023682
0.018437643 0.028358668 0.15037955
0.022182569 0.027260261 0.15273589
-0.0062352251 0.031400155 0.15333332
-0.00221376 0.032397132 0.15145631
0.0022207706 0.033387575 0.15061092
0.0075631132 0.033567578 0.15018633
0.012822846 0.032983806 0.15075122
0.017300475 0.032365102 0.15211166
0.020826694 0.030915901 0.15378577
-0.0012296898 0.035639811 0.15352003
0.0028681578 0.036258254 0.15273634
0.007549963 0.036494348 0.15240763
0.012118935 0.036500182 0.15307829
0.01600243 0.035635676 0.15376005
-0.0066537978 0.0040275627 0.1578261
-0.0025679704 0.0030925097 0.15701818
0.0024812515 0.0029838968 0.15686403
0.0074312361 0.00280965 0.15693349
0.012597986 0.0026363358 0.1569356
0.017279042 0.0033722308 0.15718257
0.020812923 0.0045133797 0.15859088
-0.011231322 0.0084967809 0.15783079
-0.0081136571 0.0070480476 0.1560244
-0.004608498 0.0055152932 0.155
0.018882668 0.0059789396 0.15531433
0.022175739 0.0077159042 0.15663704
0.025546903 0.0097825928 0.15900002
-0.012556741 0.012486093 0.1567656
-0.009634993 0.010398174 0.155
0.024103172 0.011963412 0.15548488
0.026131982 0.012809526 0.15738204
-0.015039849 0.018400829 0.15900001
-0.013440639 0.017426575 0.15638201
0.024796501 0.015299005 0.155
0.026288452 0.016887659 0.15637937
-0.013325036 0.02256133 0.15684368
0.026373254 0.023280736 0.15612249
-0.01178176 0.027333992 0.15641372
-0.0095631871 0.02913982 0.155
0.024369828 0.028379438 0.15542307
0.026221137 0.026984502 0.15608454
-0.010603924 0.031124607 0.15725
-0.0078748064 0.032700866 0.15581393
-0.0046713287 0.034651011 0.155
0.019381495 0.034085751 0.15518181
0.021974342 0.032486673 0.15629672
-0.0057219798 0.035640888 0.15650001
-0.0025479468 0.037140287 0.15616471
0.0022920333 0.038534913 0.15557352
0.0072789267 0.039017029 0.15543485
0.013093279 0.038634345 0.15560004
0.017499771 0.037052218 0.1561143
0.020298818 0.035511792 0.15714286
-0.001599018 -0.00082722248 0.16310526
0.0025804047 -0.00079019729 0.16290402
0.0075402823 -0.00079160318 0.1627838
0.012560067 -0.00114832 0.16294174
0.015994569 -0.00048590786 0.16140909
-0.010251587 0.0046217917 0.16175
-0.0070246444 0.0020960106 0.1606061
-0.0024646355 0.00070610241 0.16057374
0.0025004882 0.00074730796 0.16060615
0.0074244686 0.00068172259 0.16049999
0.012302713 0.00057381578 0.16036735
0.017521115 0.0011598661 0.16056523
0.021376722 0.0037022608 0.16040005
-0.011880432 0.0070008454 0.16052777
-0.0099457996 0.0055449586 0.16000001
0.023967031 0.0066158278 0.16034485
0.025575487 0.0089395819 0.16041669
-0.014226427 0.010863314 0.16000001
0.027191052 0.01250922 0.16022223
0.027646307 0.017821463 0.16030003
0.027597951 0.021346856 0.16028574
-0.013634783 0.028492838 0.16066667
0.026614565 0.029665779 0.16066669
-0.010958669 0.032750759 0.1605
-0.0099457996 0.033693328 0.16000001
0.023997875 0.033386312 0.16120002
0.0255128 0.031532764 0.16237502
-0.0071700132 0.036537908 0.16025001
-0.00026847277 -0.0023971179 0.16500001
0.0025977436 -0.0025058025 0.16549334
0.0075051649 -0.0025176059 0.16562165
0.010766448 -0.0025798881 0.16523808
0.025058577 0.032739703 0.16500001
