# .PCD v0.7 - Point Cloud Data file format
VERSION 0.7
FIELDS x y z
SIZE 4 4 4
TYPE F F F
COUNT 1 1 1
WIDTH 119
HEIGHT 1
VIEWPOINT 0 0 0 1 0 0 0
POINTS 119
DATA ascii
0.079348005 -0.060387891 0.25400001
0.082551271 -0.060387883 0.25399998
0.085319802 -0.060387887 0.25400001
0.078261524 -0.057190932 0.25357971
0.082550377 -0.057482116 0.25304228
0.087199792 -0.057325684 0.25328958
0.090768456 -0.056348801 0.25394446
0.073707238 -0.051860467 0.25384781
0.077658676 -0.052458674 0.25256398
0.082638629 -0.052400596 0.25146765
0.08757779 -0.052447457 0.25178376
0.091944516 -0.052285153 0.25331482
0.073059492 -0.047434807 0.25324395
0.077582099 -0.047320522 0.25174016
0.082643457 -0.047428112 0.25099987
0.087506615 -0.047394637 0.25109279
0.092039511 -0.047386732 0.25248483
0.073488392 -0.042728584 0.25330156
0.077627048 -0.042153485 0.25221792
0.08263801 -0.042303454 0.25142714
0.087617144 -0.042241264 0.25158346
0.09231022 -0.042237103 0.25289479
0.074543104 -0.039520908 0.25400001
0.077914976 -0.038188074 0.25370687
0.082565464 -0.0377004 0.25311592
0.087210707 -0.037774611 0.25321254
0.09142974 -0.038402781 0.25370273
0.084496111 -0.034853294 0.25400001
0.085663013 -0.034853294 0.25400001
0.073285088 -0.061497927 0.25804168
0.076551355 -0.060925554 0.25584003
0.068770677 -0.056741986 0.25834283
0.072640806 -0.05752011 0.25656471
0.076246813 -0.058234971 0.25516677
0.092909358 -0.056302916 0.25530776
0.095286846 -0.055267151 0.257
0.064846672 -0.051760163 0.25900003
0.067684315 -0.052403949 0.25718895
0.071640238 -0.052981049 0.25521156
0.094269857 -0.053099137 0.25517651
0.096273996 -0.051937111 0.25652
0.064951666 -0.049817871 0.259
0.067661285 -0.047465917 0.25673857
0.070460699 -0.047684036 0.25500008
0.094958782 -0.047670253 0.25500003
0.096981511 -0.04743493 0.25569636
0.068359323 -0.042644583 0.25733331
0.071245044 -0.042071745 0.25532657
0.094958782 -0.042929128 0.25500003
0.097046964 -0.042433757 0.2561934
0.06930095 -0.038437646 0.25860867
0.072558515 -0.037384603 0.25659001
0.076878622 -0.036193877 0.25537845
0.080280602 -0.035403982 0.25500003
0.089288332 -0.035640251 0.25500003
0.093027696 -0.036718313 0.25552937
0.096883349 -0.037687119 0.25755998
0.073395297 -0.033523973 0.25832608
0.077724084 -0.032691579 0.25756562
0.082477748 -0.032586649 0.25657988
0.087440386 -0.03263006 0.25680831
0.092283964 -0.033197422 0.25799996
0.095778406 -0.034245614 0.25875002
0.078915186 -0.029555015 0.259
0.081808589 -0.029553778 0.2588889
0.085109532 -0.029660005 0.259
0.069792747 -0.065086268 0.26300001
0.064493306 -0.060196985 0.264
0.067886367 -0.06186945 0.26251855
0.071183138 -0.062975153 0.26087508
0.063718036 -0.057199087 0.26287803
0.066703103 -0.058026712 0.2610527
0.063352384 -0.052434515 0.26207021
0.065202445 -0.054225989 0.26000002
0.063403748 -0.047603566 0.26207694
0.065371081 -0.047199704 0.26000002
0.063812606 -0.042634554 0.26290199
0.065980911 -0.042321049 0.26051357
0.064364672 -0.03893337 0.26363635
0.067100011 -0.037430413 0.26148194
0.070682943 -0.035255022 0.26000002
0.098254077 -0.036604073 0.26000002
0.068667941 -0.033601664 0.26292685
0.071846768 -0.031775977 0.26137498
0.075741865 -0.030406889 0.26000002
0.089443117 -0.0301961 0.26000002
0.092952274 -0.03098323 0.26030442
0.096808575 -0.032359906 0.26085716
0.073540434 -0.028858505 0.26279312
0.077477507 -0.027916417 0.26154432
0.0825762 -0.027080351 0.26140276
0.087493166 -0.027612319 0.26161799
0.091891818 -0.028947122 0.26153579
0.095547333 -0.029465845 0.26100001
0.064307913 -0.060639851 0.26500002
0.06212214 -0.056816742 0.26652378
0.059388593 -0.051339064 0.26866668
0.060969379 -0.052526448 0.26682925
0.059496783 -0.049250688 0.26850003
0.061036788 -0.047561403 0.26668423
0.061834347 -0.042412911 0.26657146
0.063204587 -0.037494987 0.26666039
0.065453738 -0.035360094 0.26500005
0.064288758 -0.033004124 0.26753855
0.067098118 -0.031966485 0.26657745
0.070323497 -0.030347111 0.26500002
0.068836354 -0.029177962 0.2682308
0.072462194 -0.027461434 0.26693222
0.08063592 -0.025620585 0.26500005
0.059639119 -0.046949785 0.270625
0.060331862 -0.045901317 0.27057144
0.059498377 -0.043265827 0.27300003
0.060514648 -0.042294376 0.27167857
0.059827797 -0.039374758 0.27400002
0.061720602 -0.037607886 0.27236673
0.063467897 -0.033504523 0.27114287
0.065302372 -0.030481905 0.27000001
0.068244413 -0.028560227 0.27058822
0.061606795 -0.036843069 0.27500001
