# .PCD v0.7 - Point Cloud Data file format
VERSION 0.7
FIELDS x y z
SIZE 4 4 4
TYPE F F F
COUNT 1 1 1
WIDTH 67
HEIGHT 1
VIEWPOINT 0 0 0 1 0 0 0
POINTS 67
DATA ascii
-0.046300109 0.028541615 0.12353846
-0.044690821 0.029441556 0.12370586
-0.045560751 0.032025125 0.12192596
-0.043996491 0.032869793 0.12283713
-0.045191042 0.036958013 0.121
-0.043230131 0.037490696 0.1224378
-0.045354124 0.043350592 0.12270964
-0.043390334 0.042107556 0.12297325
-0.045520272 0.046008024 0.12394444
-0.044194069 0.045721941 0.12400003
-0.050401453 0.021545989 0.1288
-0.048137732 0.023524547 0.12766677
-0.046284847 0.026426762 0.12611115
-0.043956876 0.028489331 0.12728724
-0.042188056 0.032552119 0.12678909
-0.040964529 0.03753927 0.12683272
-0.039648116 0.039297428 0.12885717
-0.04112374 0.042582624 0.12671079
-0.039792411 0.041134968 0.12840001
-0.045949973 0.048086628 0.12565304
-0.042786181 0.047231987 0.127159
-0.043472618 0.050069034 0.12900001
-0.052035008 0.019058922 0.13313757
-0.049571868 0.019788094 0.13375001
-0.050888821 0.020442437 0.13060421
-0.047433745 0.022577811 0.13202649
-0.044708189 0.024806838 0.13300002
-0.045412909 0.025333276 0.13060002
-0.04333346 0.027637273 0.13203073
-0.041019406 0.032300979 0.13191824
-0.039807849 0.034267172 0.13345456
-0.040211953 0.036523819 0.13104086
-0.039567675 0.037663445 0.13226423
-0.04010212 0.043231659 0.13057697
-0.039402127 0.04234628 0.13218825
-0.040961314 0.047713019 0.13134812
-0.03916198 0.046648026 0.13289848
-0.042257089 0.050758801 0.13293549
-0.055687595 0.01651269 0.13805
-0.052659046 0.018142087 0.13724115
-0.049678322 0.019758886 0.13663638
-0.047179874 0.022151811 0.13682313
-0.044657458 0.024451826 0.13680001
-0.045059789 0.025000796 0.13600001
-0.043024708 0.027239341 0.13691929
-0.040752616 0.0318994 0.13681726
-0.039708853 0.034267299 0.1370811
-0.039240129 0.037350249 0.13630648
-0.038832996 0.042358272 0.13674283
-0.040353797 0.049771942 0.13575001
-0.039259866 0.047061116 0.13692731
-0.041721303 0.051503487 0.13638893
-0.039717022 0.050335612 0.13633335
-0.051694408 0.018123791 0.14027025
-0.049533639 0.019526713 0.14136364
-0.050017122 0.020061038 0.14
-0.046994094 0.022255249 0.14118259
-0.044717871 0.024746452 0.14083335
-0.045060366 0.025128264 0.14300001
-0.043274593 0.027461097 0.14227171
-0.040969189 0.031827237 0.14113435
-0.039574984 0.033113711 0.14
-0.040185869 0.035344876 0.14075001
-0.039291233 0.038924988 0.14000003
-0.039380413 0.040815603 0.14
-0.040180326 0.046771728 0.14000002
-0.039574984 0.04673389 0.14
