# .PCD v0.7 - Point Cloud Data file format
VERSION 0.7
FIELDS x y z
SIZE 4 4 4
TYPE F F F
COUNT 1 1 1
WIDTH 142
HEIGHT 1
VIEWPOINT 0 0 0 1 0 0 0
POINTS 142
DATA ascii
-0.0017939941 -0.026164567 0.21400011
0.0015096428 -0.026165767 0.21400009
-0.0058855885 -0.021839235 0.214
-0.0026438111 -0.022787666 0.21400027
0.0023412167 -0.022768842 0.21400023
0.005087981 -0.021929082 0.21400002
-0.0059210761 -0.019428048 0.21400002
-0.0024328975 -0.017999282 0.21400025
0.0020189688 -0.018166577 0.21400015
0.0050879805 -0.01999585 0.21400002
-0.0058899405 -0.03511082 0.219
-0.0023981477 -0.035347551 0.21900003
0.0027534575 -0.035377145 0.21900003
0.0060354192 -0.03514041 0.21900001
-0.011240181 -0.031295013 0.21879309
-0.0073977602 -0.03238463 0.21779212
-0.0023393575 -0.032670144 0.21680553
0.0025074938 -0.03269713 0.21677969
0.0072837882 -0.032283142 0.21804908
0.011003688 -0.030680595 0.21893339
-0.0153888 -0.025256859 0.21900001
-0.012340185 -0.027412463 0.21802151
-0.0075423652 -0.027712077 0.21596624
-0.0028106365 -0.028404793 0.21512203
0.0028247486 -0.028295808 0.21518001
0.0075149923 -0.027668588 0.21614015
0.011932587 -0.027265787 0.21806456
-0.015575696 -0.021846056 0.21900004
-0.012494342 -0.022576367 0.21713509
-0.007980885 -0.022825368 0.21520412
0.0044145333 -0.024969852 0.215
0.0075171846 -0.022620665 0.21534646
0.012485602 -0.022528417 0.21768649
-0.01559768 -0.018374233 0.21900004
-0.012489805 -0.017603714 0.21740176
-0.0077635185 -0.017460048 0.21537383
-0.0040325993 -0.01587913 0.21499999
0.0037560451 -0.016390128 0.21500006
0.0075632408 -0.017673772 0.21556662
0.012087101 -0.01763778 0.2178783
-0.011568626 -0.013194505 0.21839345
-0.0074540884 -0.012612167 0.21689381
-0.0024379659 -0.012532722 0.21562003
0.0025332307 -0.012605368 0.21578975
0.0074564791 -0.012585277 0.21722957
0.011140806 -0.01348504 0.21854542
-0.0068152812 -0.0087166652 0.21866664
-0.002301804 -0.0079918522 0.21804127
0.0024755339 -0.0082702003 0.21823531
0.0066081602 -0.009065018 0.21867645
-0.015636371 -0.035562202 0.22400001
-0.012281052 -0.036914576 0.22301404
-0.007686526 -0.037080932 0.22201408
-0.0026011409 -0.037199698 0.22182977
0.0028899426 -0.037157733 0.22172093
0.007698088 -0.036991414 0.22198531
0.011937272 -0.036180038 0.22349998
0.015253335 -0.035216291 0.22400002
-0.016713576 -0.031950772 0.22279246
-0.013087665 -0.033022922 0.22105554
-0.0095137525 -0.034706336 0.22000001
0.0092050964 -0.034217484 0.2200667
0.012744695 -0.032602921 0.22153258
0.016041175 -0.031720117 0.22362499
-0.020669503 -0.025431033 0.22342858
-0.017224057 -0.027469238 0.22110988
-0.014270006 -0.029296096 0.22000001
0.014226499 -0.028305203 0.22021426
0.016917303 -0.027187807 0.22224693
-0.020572253 -0.022423951 0.22350003
-0.017886 -0.022640904 0.22089997
0.014862048 -0.024658749 0.22000001
0.017407415 -0.022354169 0.2218304
-0.020824857 -0.017544826 0.22355556
-0.017788218 -0.017271625 0.22113097
0.014593479 -0.0168397 0.22004761
0.017206576 -0.017653218 0.22224751
0.020217136 -0.019235279 0.22400002
-0.020643407 -0.014755755 0.22400001
-0.017015299 -0.012952233 0.22248192
-0.01352694 -0.011772201 0.22063261
0.0098679811 -0.01021163 0.22000001
0.01316989 -0.012106629 0.22097559
0.01618845 -0.01301519 0.22314812
-0.015667899 -0.0093002161 0.22383335
-0.012198676 -0.0080284784 0.22211109
-0.0078881886 -0.0066211424 0.22074251
-0.0024982779 -0.0056337388 0.21999997
0.0028591214 -0.0059355437 0.22018413
0.0078822747 -0.0070782267 0.22102249
0.011930848 -0.0082727214 0.22272152
0.015132267 -0.0096708871 0.22400001
-0.01080414 -0.0046347505 0.22385716
-0.0071176579 -0.0038660057 0.22298175
-0.0022803154 -0.003170446 0.22228573
0.0024888695 -0.0033730255 0.22238819
0.006910007 -0.0041430374 0.22320001
0.010047399 -0.0049492246 0.22400001
-0.010142372 -0.040949423 0.22675
-0.0073851952 -0.041605465 0.22773473
-0.002714799 -0.041177649 0.22832002
0.0025722636 -0.041344613 0.22829038
0.0065525151 -0.041633189 0.2280883
-0.016506899 -0.036014713 0.22499999
-0.012135441 -0.03934047 0.22508332
-0.0074360571 -0.039535463 0.22549999
-0.0023477166 -0.039508723 0.22592591
0.0022028135 -0.039448347 0.22582144
0.0070935637 -0.039530497 0.2255263
0.012098798 -0.037787449 0.22499995
-0.020684034 -0.03052091 0.22585717
-0.018764721 -0.032616753 0.22519997
0.017277237 -0.032259032 0.22512496
-0.0214354 -0.027159523 0.22533329
0.01885646 -0.028515685 0.2251
-0.022244625 -0.022471923 0.22499993
-0.022367457 -0.017472556 0.22503698
0.018848084 -0.015551279 0.22500001
-0.020662604 -0.01372715 0.22500001
-0.018579725 -0.011184076 0.22523077
0.017615356 -0.011889555 0.22531575
-0.016490851 -0.0075394139 0.22628266
-0.01412378 -0.0058436622 0.22588889
0.013457591 -0.0063677798 0.2260834
0.016318778 -0.0075030667 0.22747371
-0.015651528 -0.0046679131 0.22800002
-0.012187771 -0.0033124764 0.22686541
-0.0078808647 -0.0015579179 0.22660717
-0.0029077842 -0.00076396292 0.22564282
0.0027769827 -0.00096016674 0.22578377
0.0076472741 -0.0020409639 0.22640851
0.012012185 -0.0037200828 0.22711112
-0.0055953041 -0.043369628 0.23
-0.0025168578 -0.043250222 0.23051654
0.0021470236 -0.043475535 0.23045644
0.0053192168 -0.043493938 0.23
0.019248551 -0.011198919 0.23099998
0.020099811 -0.012407709 0.23100001
0.014791729 -0.0050817933 0.23
0.017971367 -0.0078550717 0.23035
0.014543107 -0.0040873042 0.23
0.016283464 -0.0047088601 0.23
