# .PCD v0.7 - Point Cloud Data file format
VERSION 0.7
FIELDS x y z
SIZE 4 4 4
TYPE F F F
COUNT 1 1 1
WIDTH 104
HEIGHT 1
VIEWPOINT 0 0 0 1 0 0 0
POINTS 104
DATA ascii
0.059460353 0.024331516 0.12399999
0.062904477 0.023087973 0.12358029
0.065176189 0.021261763 0.12399998
0.058763951 0.027841039 0.12376025
0.062281348 0.027310383 0.122615
0.058625858 0.032093946 0.12370172
0.06229889 0.032529578 0.12254077
0.059076592 0.035634618 0.12400004
0.062622041 0.036651026 0.12360954
0.065176189 0.038125649 0.12399998
0.058618508 0.018769842 0.12825504
0.062559366 0.018133 0.12686557
0.066155657 0.017173097 0.12699997
0.054157056 0.023749499 0.12864423
0.057491958 0.022484574 0.12667616
0.061767079 0.021173064 0.12513494
0.065484643 0.020227998 0.125
0.053502057 0.027622769 0.12788469
0.056470565 0.02720088 0.12555207
0.053267688 0.032541756 0.12767829
0.0562433 0.032764487 0.1253607
0.053889301 0.036975227 0.12824996
0.057330478 0.037646532 0.12617172
0.06207972 0.039059516 0.12507081
0.065549791 0.039699871 0.125
0.054731321 0.040238187 0.12900001
0.058051925 0.041533031 0.12804922
0.062560827 0.042331412 0.1272725
0.066130005 0.04257904 0.1273137
0.063586064 0.045049027 0.12900001
0.058303118 0.01440412 0.13360803
0.062689193 0.014121355 0.13309734
0.067403175 0.013963086 0.13265683
0.070243165 0.013178108 0.13360003
0.053890895 0.018564615 0.13282853
0.057010062 0.017006343 0.13141511
0.062192969 0.01572904 0.13074806
0.066347592 0.015456766 0.13047625
0.049856454 0.024546228 0.134
0.05240399 0.022402013 0.13172697
0.055498127 0.020525208 0.13000001
0.049383119 0.027848845 0.13293575
0.050998066 0.027275095 0.13071945
0.049063206 0.032213043 0.13283785
0.050869074 0.0325501 0.13065799
0.049449954 0.036533102 0.13357805
0.051490825 0.037743032 0.13113353
0.053142965 0.041903671 0.13235228
0.056666397 0.043536533 0.13101466
0.060934719 0.044836141 0.13000001
0.067441553 0.044946555 0.13000001
0.054408349 0.045219876 0.134
0.057813946 0.045889374 0.13250665
0.062022999 0.046301082 0.13171427
0.06746088 0.045785386 0.13144445
0.068987451 0.0097755762 0.13900001
0.072237656 0.009480481 0.13883871
0.05459087 0.014536794 0.13861541
0.057581604 0.013122443 0.13691796
0.062593803 0.011957238 0.13673995
0.067453422 0.011387636 0.13683893
0.071120761 0.011053775 0.13685891
0.049676117 0.019454097 0.13857894
0.052414685 0.017524801 0.1367764
0.055228528 0.015251952 0.13540001
0.048812483 0.022768427 0.13726233
0.050632317 0.021364344 0.1354678
0.047812879 0.027391059 0.13686174
0.047307469 0.032518025 0.13684945
0.047985576 0.037511669 0.13673183
0.050053403 0.039482981 0.13500001
0.049275834 0.041454662 0.13794872
0.051459525 0.043273997 0.13623165
0.053378839 0.045806251 0.13670969
0.056626473 0.04726113 0.13600001
0.062817141 0.049346205 0.13788889
0.068714127 0.048361093 0.13700001
0.059400275 0.0097077079 0.14256251
0.062699035 0.0091343913 0.14226951
0.067497522 0.0086353058 0.14170393
0.071335584 0.0085804043 0.14045589
0.053666696 0.014062984 0.142
0.057275135 0.011643506 0.14144441
0.062054265 0.010478788 0.14041813
0.049168766 0.018795436 0.1422029
0.051441081 0.016348315 0.14169161
0.047035869 0.022535328 0.14197448
0.044858888 0.028276626 0.14369568
0.045952667 0.027339049 0.14162304
0.044866607 0.030954165 0.14350002
0.045702841 0.032518689 0.14108577
0.046474423 0.037527133 0.14033329
0.048107296 0.041562136 0.14033335
0.050545216 0.04457736 0.14000002
0.052020736 0.04582588 0.14
0.053380929 0.013485407 0.14538887
0.056462884 0.011396625 0.14529999
0.048800237 0.018402889 0.145
0.050693002 0.015946275 0.14524999
0.046442762 0.022114353 0.14531998
0.044826873 0.028222663 0.14500001
0.045400679 0.026245236 0.14533335
0.044714123 0.031302907 0.14540002
0.045453288 0.031918611 0.14520001
