# .PCD v0.7 - Point Cloud Data file format
VERSION 0.7
FIELDS x y z
SIZE 4 4 4
TYPE F F F
COUNT 1 1 1
WIDTH 129
HEIGHT 1
VIEWPOINT 0 0 0 1 0 0 0
POINTS 129
DATA ascii
0.088043869 -0.030227678 0.20900007
0.090561293 -0.030227682 0.20900002
0.079777546 -0.025628552 0.20900001
0.083021246 -0.026935535 0.2086138
0.087556355 -0.027282245 0.2080157
0.092435427 -0.027235428 0.20840183
0.096160717 -0.026471442 0.20896438
0.079404771 -0.022248194 0.20900007
0.082617275 -0.022391677 0.20804493
0.087628908 -0.022278637 0.20700026
0.092675418 -0.022311401 0.20729564
0.096769087 -0.022195304 0.20840792
0.079406895 -0.018067224 0.20900008
0.082593836 -0.017346857 0.20832001
0.087491862 -0.017250765 0.20709814
0.092721932 -0.017286677 0.20750414
0.096812375 -0.017434129 0.20859489
0.083277389 -0.013383924 0.20890313
0.087682374 -0.01257831 0.20838161
0.092273459 -0.012554363 0.20858324
0.09609101 -0.013880607 0.20900007
0.08887656 -0.0097010499 0.20900002
0.090593562 -0.009701049 0.20900002
0.08385478 -0.035379086 0.214
0.08787702 -0.035469167 0.21341936
0.091936015 -0.035362899 0.2121667
0.077947088 -0.031640004 0.21303754
0.082414716 -0.032407023 0.21190983
0.087278157 -0.032553785 0.21083659
0.092587776 -0.032596938 0.21093693
0.096462004 -0.032003764 0.21158181
0.074386291 -0.026348433 0.21385714
0.077398904 -0.027441164 0.21166223
0.081444256 -0.028762948 0.21009758
0.094162494 -0.029581854 0.21000002
0.098088108 -0.027681779 0.21059161
0.1007908 -0.025989516 0.21109998
0.074178435 -0.022635683 0.21354905
0.076858908 -0.022551848 0.2111292
0.099434875 -0.022747746 0.21000002
0.10132715 -0.022245128 0.21036959
0.074210152 -0.018072946 0.21366666
0.077025212 -0.017337108 0.2113042
0.080244377 -0.015195536 0.21000001
0.099381857 -0.017326564 0.21016668
0.10181701 -0.017561866 0.21132399
0.074416652 -0.014305211 0.21400002
0.077650316 -0.012710449 0.21230283
0.08192867 -0.011725587 0.21028574
0.085394502 -0.01064129 0.21000002
0.094176695 -0.010797354 0.21000002
0.097763963 -0.012123756 0.21072415
0.10111736 -0.012612593 0.21256405
0.078763396 -0.0089832172 0.21323079
0.082529821 -0.0077782264 0.2123135
0.087359801 -0.0074568572 0.21136166
0.092444345 -0.0074614361 0.21158196
0.097287975 -0.0081969835 0.21257649
0.10060533 -0.0093581667 0.21322225
0.084548771 -0.0047282772 0.21400002
0.087622121 -0.0044432506 0.21400008
0.091445215 -0.0045547816 0.214
0.074805982 -0.035022043 0.21900001
0.077845164 -0.036099158 0.21772091
0.082228072 -0.036628649 0.2165439
0.087171085 -0.036396574 0.21499997
0.073681757 -0.031849347 0.21771432
0.076548345 -0.033471383 0.21586207
0.08064431 -0.034730982 0.215
0.069775432 -0.02584869 0.21900001
0.072460361 -0.02770571 0.21665038
0.075182721 -0.029676111 0.215
0.069513574 -0.02240056 0.21867737
0.07166063 -0.022662656 0.21617141
0.069683462 -0.017654032 0.21875004
0.07174293 -0.017518096 0.21618181
0.069834612 -0.014603933 0.21900001
0.072743475 -0.012683249 0.216812
0.075606041 -0.010960859 0.2152143
0.073944107 -0.0085984385 0.21810256
0.077224113 -0.007383401 0.21652776
0.081188679 -0.0055826143 0.21526317
0.097875074 -0.0058037019 0.21530002
0.10087783 -0.0065869344 0.21631582
0.079118632 -0.0043307738 0.2182778
0.082718469 -0.0031505947 0.21703915
0.087443262 -0.0020298515 0.21689683
0.092605457 -0.0023718858 0.21674216
0.09649536 -0.0032692512 0.21723807
0.10039005 -0.0048056087 0.2175
0.079000883 -0.040000301 0.221
0.081043422 -0.040000301 0.22100002
0.07327617 -0.036513515 0.22293331
0.077088043 -0.038204212 0.22093941
0.081396416 -0.038960714 0.2205625
0.069386639 -0.030966418 0.22320004
0.071715817 -0.032794181 0.2215526
0.068738259 -0.027177073 0.22189547
0.070307828 -0.028934624 0.22011113
0.067911267 -0.022503434 0.22189331
0.068400614 -0.017548662 0.22152174
0.069108047 -0.013019687 0.22227448
0.070626013 -0.01138385 0.22074077
0.069855131 -0.0094287507 0.22400002
0.072328821 -0.0076469406 0.22176139
0.075915545 -0.0057314979 0.22033334
0.074398354 -0.0046803239 0.22357145
0.077713549 -0.0029174984 0.22218278
0.081682317 -0.0010558572 0.220825
0.085314058 -0.00022349911 0.22000001
0.093964487 -0.00022349911 0.22000001
0.097474381 -0.0017050564 0.22035715
0.069783054 -0.035425734 0.22533336
0.070835829 -0.035951149 0.22499999
0.068544343 -0.032243405 0.22637045
0.070288591 -0.034157418 0.22500001
0.066843092 -0.027546128 0.22637935
0.064763948 -0.021695092 0.22566669
0.066086657 -0.022089219 0.22593874
0.0670259 -0.017378505 0.22655317
0.067824706 -0.012519652 0.22677782
0.069268852 -0.0087074218 0.22732002
0.071299747 -0.0064293062 0.22634481
0.073866412 -0.0035518636 0.22621876
0.06551069 -0.020372067 0.23
0.066086568 -0.017747546 0.23052382
0.06830769 -0.010675795 0.23
0.068991408 -0.0086868182 0.23
0.070731759 -0.0065735271 0.23
