# .PCD v0.7 - Point Cloud Data file format
VERSION 0.7
FIELDS x y z
SIZE 4 4 4
TYPE F F F
COUNT 1 1 1
WIDTH 106
HEIGHT 1
VIEWPOINT 0 0 0 1 0 0 0
POINTS 106
DATA ascii
0.069580056 -0.09527272 0.31400001
0.070768043 -0.095187865 0.31400001
0.064997837 -0.090435937 0.31400001
0.068132453 -0.091883563 0.31366673
0.072597459 -0.092493452 0.31228575
0.0775306 -0.092552938 0.31157148
0.082400203 -0.092332646 0.31184003
0.087234236 -0.091388501 0.31300008
0.090166532 -0.09014792 0.31300002
0.064301118 -0.08727394 0.31400007
0.067730986 -0.087374344 0.31212705
0.072691552 -0.087688364 0.31075865
0.077602267 -0.087611452 0.31042862
0.08257015 -0.087618694 0.31094927
0.087773435 -0.087465748 0.31258491
0.090518236 -0.087572053 0.31400001
0.063948132 -0.08244215 0.31373924
0.067567006 -0.082526162 0.31188068
0.072708935 -0.082611009 0.31007946
0.077525951 -0.082623795 0.31000015
0.082248807 -0.082575545 0.31021321
0.08764644 -0.082383931 0.3123273
0.090624303 -0.082204923 0.31400007
0.064590536 -0.07806395 0.31400004
0.067774363 -0.077612504 0.31226096
0.072607338 -0.077453531 0.31055894
0.077606253 -0.077585675 0.31046447
0.082500078 -0.077491842 0.31104296
0.087378785 -0.077535883 0.31306127
0.090454601 -0.079234958 0.31400001
0.068470709 -0.072979957 0.31351525
0.072581939 -0.07259699 0.31242263
0.077498257 -0.072599731 0.31212118
0.082337528 -0.072384067 0.31290156
0.086327605 -0.073179081 0.31373084
0.072713204 -0.069287248 0.31400007
0.077128544 -0.069074385 0.3140001
0.081481092 -0.069434106 0.31400001
0.063100085 -0.095730178 0.31791669
0.0668476 -0.095695421 0.3159
0.059575193 -0.091844358 0.3188889
0.062584676 -0.092276871 0.31688687
0.066577353 -0.0936305 0.31528574
0.059450101 -0.088210054 0.31857145
0.061835062 -0.087536253 0.31606817
0.091895096 -0.086683296 0.31557146
0.059825927 -0.082713418 0.31900001
0.061641097 -0.082545459 0.31678376
0.093101367 -0.082328267 0.31582752
0.095455788 -0.081686765 0.31640002
0.059825923 -0.079074249 0.31900001
0.062495764 -0.0776003 0.31735012
0.065545343 -0.0755715 0.31500003
0.089108251 -0.076116309 0.31500003
0.092618704 -0.077578135 0.31634483
0.095563717 -0.077830769 0.31790915
0.064004272 -0.073704906 0.31805006
0.066715911 -0.072029635 0.31689739
0.088325076 -0.071720734 0.31548384
0.091944925 -0.073102348 0.3175278
0.069059044 -0.069317423 0.31792313
0.072583564 -0.067620531 0.31695741
0.077461548 -0.066573888 0.31635404
0.082573801 -0.067233719 0.31632763
0.087229356 -0.067885384 0.31740394
0.091234855 -0.068749569 0.31850001
0.077412166 -0.064979382 0.31900001
0.082275607 -0.064742737 0.31860003
0.060272899 -0.095796056 0.32000002
0.058540575 -0.092433505 0.32094449
0.060013466 -0.094758332 0.32000002
0.057987303 -0.087481439 0.3215152
0.058320351 -0.082329482 0.32111767
0.058711078 -0.077822424 0.32189658
0.060384847 -0.076008141 0.32025
0.05946641 -0.073603049 0.32337499
0.062254857 -0.072201349 0.32164288
0.065382764 -0.070426293 0.32025003
0.093934968 -0.071770288 0.32028574
0.06341818 -0.069058046 0.32357141
0.067553543 -0.067495361 0.32176787
0.071717605 -0.065758899 0.32091674
0.088103943 -0.065521576 0.32013336
0.092485517 -0.06682384 0.32048568
0.06951946 -0.064246714 0.324
0.07286717 -0.063763916 0.32255554
0.077525273 -0.062703215 0.32188135
0.082398005 -0.062890559 0.32182932
0.087526999 -0.06324891 0.3215251
0.090945266 -0.063434646 0.3226923
0.056728907 -0.086137712 0.32700002
0.054599937 -0.082945004 0.32800001
0.056068998 -0.08249753 0.32740918
0.054766398 -0.079285875 0.32900003
0.056865461 -0.078147866 0.32695654
0.059633739 -0.072261736 0.32500002
0.059897229 -0.069890365 0.32500002
0.062904999 -0.068007626 0.3266429
0.065927006 -0.066118397 0.32633337
0.068412751 -0.063916914 0.32680005
0.072447509 -0.062216517 0.32621744
0.08629822 -0.061918225 0.32520002
0.056803614 -0.07639797 0.33113337
0.058139201 -0.073651381 0.33136368
0.06222913 -0.067187853 0.3310667
0.065099351 -0.06561482 0.33000001
