# .PCD v0.7 - Point Cloud Data file format
VERSION 0.7
FIELDS x y z
SIZE 4 4 4
TYPE F F F
COUNT 1 1 1
WIDTH 226
HEIGHT 1
VIEWPOINT 0 0 0 1 0 0 0
POINTS 226
DATA ascii
-0.016514439 0.03691994 0.11856952
-0.01249528 0.037981089 0.11655033
-0.0086727431 0.037604891 0.11687744
-0.0032302781 0.03887945 0.1176667
-0.01169329 0.041764885 0.11842386
-0.0090319719 0.041543245 0.11879998
-0.0041596927 0.040662687 0.11860001
-0.035793189 0.034606144 0.12262794
-0.031716883 0.03438108 0.12199999
-0.027466448 0.034853611 0.12069229
-0.023211038 0.034753896 0.12100001
-0.0074525289 0.03403585 0.1236579
-0.035477124 0.036788318 0.12100001
-0.032590743 0.037156489 0.12062887
-0.027616046 0.037392914 0.12137311
-0.022392919 0.037440531 0.12167048
-0.018375918 0.037885051 0.12093019
-0.014173351 0.037090227 0.12
-0.0073634721 0.037109699 0.12178632
-0.0038632164 0.039344113 0.12164865
0.0009137952 0.039323416 0.12400001
-0.035248365 0.041400883 0.12305883
-0.032571461 0.042140409 0.12310778
-0.027942376 0.041998386 0.12351523
-0.022162048 0.041851457 0.12340748
-0.017092047 0.042242363 0.12257688
-0.013221831 0.043288413 0.12064543
-0.0074901204 0.042566571 0.12191751
-0.0033469482 0.041501772 0.12274418
-0.028350372 0.045321885 0.12400001
-0.022681307 0.045425903 0.12400001
-0.016386852 0.045883827 0.12400004
-0.012039448 0.047103412 0.12277942
-0.0088700382 0.046863519 0.12285978
-0.010875087 0.050256316 0.12400001
-0.0056504058 0.029744977 0.12899999
-0.0048207655 0.029591672 0.12900001
-0.035566933 0.033075087 0.12620971
-0.033034481 0.033460617 0.12787826
-0.0064095561 0.03231715 0.12800607
-0.0046035391 0.032729451 0.12794283
-0.035117328 0.035365209 0.12828574
-0.033297434 0.035724685 0.12720634
-0.02949347 0.036333393 0.1275
-0.0066770636 0.037541643 0.12719998
-0.0044300603 0.039677974 0.12671429
0.0012690142 0.03946697 0.125875
-0.035167605 0.043747507 0.125
-0.031463854 0.044060122 0.12516215
-0.02645145 0.043624364 0.12569232
-0.022670409 0.044042647 0.12543999
-0.019282699 0.043386027 0.1254655
-0.0064668083 0.04111129 0.12695999
-0.0027501567 0.042780254 0.12663154
0.0013054849 0.041045327 0.12811998
-0.035102725 0.045865797 0.12650001
-0.032084782 0.047192954 0.12666954
-0.027451703 0.047297187 0.12737852
-0.022141367 0.047412317 0.12709513
-0.017658966 0.047540355 0.12647884
-0.013947062 0.048900507 0.12581481
-0.0069080959 0.048116453 0.12662145
-0.0042026415 0.046637543 0.1275714
-0.032200772 0.050551903 0.12894873
-0.027978731 0.050417189 0.12889472
-0.021214209 0.051368218 0.12772858
-0.017862817 0.05178668 0.12827657
-0.012588732 0.052197553 0.12704816
-0.0082422281 0.052122276 0.12694535
-0.035546303 0.029023143 0.1327941
-0.03248699 0.028448993 0.13235135
-0.0055124522 0.029466644 0.13000001
-0.0026202619 0.028641794 0.13179229
0.00028493704 0.027772307 0.13400003
-0.035392579 0.03062173 0.13041669
-0.033039402 0.032370847 0.13193837
-0.0063493783 0.033525787 0.13009091
-0.0030278992 0.032370437 0.13177554
-0.031807337 0.035944071 0.1312069
-0.029122373 0.03704581 0.13000001
-0.00618196 0.037402667 0.1317561
-0.0030522014 0.035767987 0.13260975
-0.0062732999 0.041140139 0.13112004
-0.0013060082 0.04396373 0.13138098
0.0014343893 0.043242514 0.13222533
-0.026211506 0.049281109 0.13015158
-0.024373608 0.049362633 0.13031581
-0.018762361 0.049859516 0.13000003
-0.006084979 0.04863267 0.13000001
-0.0026298352 0.047146581 0.1320454
0.00097045692 0.045338944 0.13400002
-0.03194046 0.052681182 0.13093293
-0.027372612 0.052656665 0.13150217
-0.02299005 0.052487399 0.13126314
-0.018307453 0.052446708 0.13055882
-0.0038531551 0.050171953 0.13300002
-0.0010246594 0.023888178 0.13899997
0.0011207161 0.024256686 0.13854901
-0.036917407 0.027703963 0.13722478
-0.032705296 0.028829576 0.13673082
-0.00084874377 0.027076129 0.13775001
0.0015305047 0.027381176 0.13684231
-0.031427953 0.032203242 0.13676733
-0.00081552303 0.032580219 0.13590007
0.001104076 0.032530434 0.13795941
-0.031041576 0.036622453 0.13680707
-0.0056274557 0.038422003 0.13631921
-0.0018109836 0.037623703 0.13738102
0.00077597017 0.036115881 0.13862161
-0.01782028 0.040993709 0.13858336
-0.014014687 0.041700952 0.13853846
-0.0054881652 0.041090243 0.13690913
-0.0030395072 0.040814586 0.13895652
0.0030710544 0.042906165 0.13500001
-0.0011631277 0.048448291 0.13652502
0.0012468627 0.04647347 0.13683335
-0.040755752 0.023559244 0.14293829
-0.039538208 0.023115976 0.14393339
-0.019574955 0.022915822 0.14400001
-0.010533665 0.022798032 0.14376926
-0.0075533553 0.022912506 0.14212988
-0.0034944802 0.023267686 0.14030898
-0.040226486 0.025307829 0.14088888
-0.038942084 0.026242275 0.14203279
-0.033288181 0.028056867 0.14225005
-0.0063300258 0.02673809 0.14266329
-0.0033542563 0.027357446 0.14155701
-0.030338369 0.032293398 0.141
-0.029914942 0.032605886 0.1415
-0.0051763654 0.030747021 0.14250001
-0.0047607473 0.03020885 0.1435
0.0025731232 0.033216007 0.14
-0.031043066 0.037050202 0.140875
-0.0026556475 0.039612625 0.1405625
0.0012897993 0.038051967 0.1411625
-0.03225863 0.040280379 0.14400001
-0.016995234 0.041872308 0.14266159
-0.012749428 0.042266138 0.14184619
-0.0031278986 0.041924514 0.14170003
0.0010242362 0.04180019 0.14255266
-0.025445161 0.019723989 0.148
-0.020342387 0.019428689 0.1485
-0.019523453 0.019449843 0.14820001
-0.01246052 0.019466478 0.14885715
-0.040084884 0.021554511 0.14500001
-0.037323296 0.023041684 0.14594439
-0.032430589 0.023002282 0.14588553
-0.027378468 0.022542235 0.14722972
-0.020691112 0.022770906 0.14746153
-0.019342653 0.022868613 0.14699998
-0.011545628 0.021981295 0.14630596
-0.0099800313 0.021250421 0.14500001
-0.037450448 0.02674488 0.14755976
-0.032349892 0.027227521 0.14777431
-0.028417289 0.025996082 0.14896883
-0.020118704 0.025259467 0.148
-0.019169198 0.025491448 0.147
-0.011144996 0.026822999 0.14811109
-0.0083158407 0.02798843 0.14613454
-0.032089919 0.031145548 0.14837933
-0.0071443478 0.031459942 0.1480117
-0.031537618 0.038916856 0.14786208
-0.026522836 0.039502051 0.14853337
-0.022074139 0.039306149 0.1482206
-0.017441299 0.038800836 0.14734536
-0.012310358 0.039263159 0.14754549
-0.0098761329 0.038450662 0.148
0.0026396797 0.03979988 0.14500001
-0.031373158 0.040510148 0.14736359
-0.027636476 0.040593397 0.14723909
-0.022287585 0.041090164 0.14676432
-0.017271811 0.04101653 0.14587125
-0.012433329 0.04106449 0.14576206
-0.0023912075 0.043383222 0.14566176
0.002487635 0.04040806 0.14500001
-0.025192905 0.01968877 0.1505
-0.022130478 0.018296104 0.15183105
-0.017744603 0.017291993 0.15300545
-0.013838163 0.018539649 0.15027589
-0.025227679 0.023013836 0.15005003
-0.023116555 0.022462595 0.15249747
-0.018320614 0.022310572 0.15206945
-0.013716161 0.02250113 0.1521412
-0.030788219 0.02923484 0.15008336
-0.027218023 0.027952095 0.15086973
-0.023849765 0.026954921 0.15228051
-0.018632745 0.026752621 0.1523667
-0.011969291 0.027807165 0.15180297
-0.030843737 0.032260299 0.15097846
-0.027527699 0.032426964 0.15314387
-0.024719993 0.031662185 0.15388893
-0.015641293 0.034515224 0.15311113
-0.010981189 0.032498024 0.15176816
-0.0091926968 0.033288747 0.15199997
-0.031196423 0.037618075 0.1528044
-0.026568744 0.03693315 0.15213811
-0.02277161 0.037764911 0.15193698
-0.017442679 0.036734592 0.15201513
-0.012585077 0.037372451 0.15177453
-0.00943032 0.035724018 0.15252383
-0.030774321 0.040202983 0.15275002
-0.028481582 0.041262906 0.15195121
-0.010324171 0.040228564 0.15000001
-0.017238485 0.019278198 0.15500005
-0.023020631 0.024991399 0.155
-0.017312577 0.022599278 0.15632638
-0.014894103 0.024666335 0.155
-0.022786129 0.028084639 0.15661407
-0.017385751 0.027081518 0.15809767
-0.014061828 0.027891595 0.15642002
-0.02838414 0.034743235 0.155
-0.022571368 0.032714576 0.15737212
-0.017599825 0.032893851 0.15700534
-0.013452696 0.032961145 0.15693241
-0.03039361 0.038614418 0.15499999
-0.028687626 0.03764981 0.15511574
-0.022798296 0.036221154 0.1559514
-0.018599801 0.035100807 0.15499999
-0.012719794 0.035893861 0.15564449
-0.0088804727 0.035230827 0.155
-0.030388683 0.040377628 0.155
-0.02072764 0.02939412 0.1604
-0.016607177 0.029064016 0.15999994
-0.020248823 0.031943385 0.16000003
-0.016707988 0.031032903 0.16016361
-0.014633852 0.030837599 0.16028574
