# .PCD v0.7 - Point Cloud Data file format
VERSION 0.7
FIELDS x y z
SIZE 4 4 4
TYPE F F F
COUNT 1 1 1
WIDTH 103
HEIGHT 1
VIEWPOINT 0 0 0 1 0 0 0
POINTS 103
DATA ascii
0.063811079 -0.085755259 0.31224999
0.066311695 -0.085990138 0.31244445
0.07305862 -0.085804582 0.31320009
0.077007465 -0.085604213 0.31350008
0.06332434 -0.082276516 0.31097504
0.067498326 -0.082350291 0.31259987
0.072113082 -0.083367869 0.31387886
0.077732019 -0.082986206 0.31361228
0.08237575 -0.08215528 0.31187105
0.087469712 -0.081886582 0.31116214
0.064117596 -0.078690268 0.31342861
0.066845767 -0.078906313 0.31370842
0.079083912 -0.079065248 0.31400001
0.082495779 -0.078894034 0.31317148
0.087218814 -0.077655554 0.31289297
0.069801651 -0.08561638 0.31500003
0.070823163 -0.08561638 0.31500003
0.073168851 -0.081284411 0.315
0.076696858 -0.081165507 0.31500003
0.064108267 -0.076718844 0.31607145
0.067854121 -0.076829389 0.31538454
0.072459437 -0.077349268 0.31613842
0.077368647 -0.077414215 0.3166177
0.082546018 -0.07652583 0.31674463
0.08650934 -0.075905763 0.31540003
0.091540165 -0.076174043 0.31707695
0.064136989 -0.072703272 0.31783339
0.067276433 -0.073358983 0.3178044
0.072700441 -0.074094482 0.31863168
0.07754343 -0.073574051 0.31888902
0.082652077 -0.072963379 0.31865314
0.087443799 -0.072412334 0.31728774
0.091275826 -0.072700761 0.31719229
0.087620899 -0.068300627 0.3190001
0.091579057 -0.06876301 0.31880003
0.063798293 -0.070358016 0.32033336
0.068232886 -0.071105354 0.32019055
0.072388381 -0.071550019 0.32048926
0.077474877 -0.071033396 0.32038894
0.082041606 -0.07065475 0.32000002
0.085437804 -0.070371725 0.32000002
0.064257987 -0.067599408 0.32177779
0.067307904 -0.06729123 0.32189247
0.072270483 -0.067448065 0.32288682
0.077636756 -0.06840951 0.3224445
0.082509048 -0.067426406 0.32132804
0.087165087 -0.06683103 0.32122445
0.091626033 -0.067137867 0.32223532
0.06471651 -0.062700942 0.3238
0.067071043 -0.062988177 0.32316676
0.071795985 -0.064071596 0.32399997
0.083486304 -0.064125605 0.32350001
0.087675944 -0.063620366 0.32329631
0.091365263 -0.063699469 0.324
0.059298359 -0.093874507 0.32825002
0.062186196 -0.092738114 0.32706663
0.065037757 -0.09338478 0.32700002
0.062386688 -0.089408174 0.32700002
0.074476771 -0.065850258 0.32500002
0.07882233 -0.067041226 0.32542861
0.080633536 -0.065692797 0.32575002
0.092650138 -0.066335052 0.32528576
0.094158113 -0.097532049 0.33400011
0.097213656 -0.096923023 0.3339999
0.059720259 -0.09158574 0.33333337
0.060969245 -0.091227509 0.33169997
0.093957469 -0.093081072 0.3338334
0.095833816 -0.093541019 0.33380002
0.062591322 -0.086939722 0.33300006
0.063274629 -0.082709253 0.33366677
0.063575387 -0.079468131 0.33380002
0.064376161 -0.10058586 0.33600003
0.068291679 -0.10073555 0.33650002
0.070722491 -0.10038461 0.33900002
0.087530464 -0.10058586 0.33600003
0.063574299 -0.098967314 0.3355
0.06739825 -0.098788738 0.33693334
0.072682038 -0.097384587 0.33881822
0.088619038 -0.097633176 0.33585373
0.09228643 -0.097123265 0.33500001
0.098676853 -0.098656937 0.33500001
0.088657849 -0.093687154 0.33568183
0.091887034 -0.093116455 0.33500001
0.062283408 -0.081003405 0.33500001
0.073449641 -0.10057551 0.34088892
0.077900566 -0.10065365 0.34153333
0.069654763 -0.098619565 0.3405
0.072410069 -0.098635957 0.34030443
0.077106185 -0.098799244 0.34176192
0.087383404 -0.097960755 0.34400001
0.061167799 -0.086247399 0.34400001
0.083108947 -0.10214803 0.34500021
0.086589277 -0.10208564 0.34541184
0.079358302 -0.09869305 0.34500003
0.082659073 -0.098108537 0.34585294
0.086325675 -0.097697683 0.34575003
0.059840363 -0.086748838 0.34600002
0.060991291 -0.08619564 0.34571436
0.059793323 -0.08014448 0.34900001
0.061702907 -0.082527816 0.34754169
0.063730799 -0.077918388 0.34780771
0.059964653 -0.079522856 0.35000002
0.061722804 -0.077556871 0.35069233
