# .PCD v0.7 - Point Cloud Data file format
VERSION 0.7
FIELDS x y z
SIZE 4 4 4
TYPE F F F
COUNT 1 1 1
WIDTH 208
HEIGHT 1
VIEWPOINT 0 0 0 1 0 0 0
POINTS 208
DATA ascii
0.0096176285 0.019795235 0.14400002
0.010473274 0.019654302 0.14400002
-0.016474634 0.022790167 0.14388362
-0.012753099 0.02268783 0.14338066
-0.0097817779 0.021492144 0.14400001
0.0086449971 0.021491561 0.14400004
0.010443074 0.020771675 0.14400004
-0.016860835 0.026435053 0.14397922
-0.012677451 0.025464639 0.14400004
-0.018223533 0.019961771 0.149
-0.0056601847 0.019539448 0.14600001
-0.0026903483 0.019338991 0.14637309
0.0018409052 0.019609548 0.14546667
0.0084116897 0.019513801 0.14566667
0.011255733 0.018747076 0.1475763
-0.017688584 0.020554675 0.14607407
-0.010695794 0.023377992 0.14512901
-0.007444113 0.022605741 0.14555572
-0.0025467761 0.022449629 0.14710227
0.0024881328 0.022417242 0.14590275
0.0070141107 0.022806581 0.14615865
0.011052166 0.022456493 0.14655553
-0.015906952 0.027908856 0.14605564
-0.012323082 0.027609965 0.14706494
-0.0076233656 0.027233921 0.14811116
-0.0030062725 0.027049545 0.14841627
0.0023990523 0.027221957 0.14794546
0.0073451297 0.026887568 0.14804204
0.0109147 0.027311746 0.14851566
-0.016043264 0.032284237 0.14684471
-0.011434592 0.030965662 0.14881817
-0.0057244101 0.03042979 0.149
-0.00204445 0.030921197 0.14841667
0.0025562593 0.030731857 0.14900002
-0.015834527 0.03667381 0.14815094
0.010554656 0.014818276 0.15400001
-0.017932987 0.018193709 0.15241489
0.0097472463 0.015948649 0.15400001
0.011169895 0.016847149 0.15218057
-0.017480768 0.020629941 0.1519524
0.013165126 0.022640245 0.15196429
0.015199126 0.021957533 0.15200001
-0.013745178 0.029356057 0.15000001
-0.0070596663 0.029363049 0.15006456
-0.0020017973 0.028254436 0.1501914
0.0023309486 0.029170131 0.15083338
0.0077663618 0.02931626 0.15063894
0.013166276 0.027353995 0.15225755
0.015192165 0.02702195 0.15300001
-0.015147658 0.03320305 0.15000004
-0.012692628 0.032718606 0.15115677
-0.007479724 0.032556038 0.15195189
-0.0025368277 0.032804735 0.15203182
0.0028139176 0.032512698 0.15228049
0.0075275642 0.032379363 0.15278377
0.01079064 0.032417446 0.15301351
-0.015564609 0.038343657 0.15027031
-0.012763091 0.037124306 0.15289709
-0.0077961613 0.036764394 0.1532319
-0.0030942613 0.036676329 0.15292558
0.0038774805 0.03696489 0.153
0.008875994 0.036231536 0.15399994
0.01007021 0.035165012 0.15400001
-0.015823143 0.042126786 0.15236954
-0.014371823 0.041787773 0.15314579
-0.0075313235 0.040655401 0.15400001
-0.0040487046 0.041425597 0.15308823
0.0044183414 0.040009473 0.15400001
-0.02628231 0.0099641904 0.15900001
-0.025605276 0.012565216 0.15835896
-0.021803003 0.013753116 0.15847914
-0.018999809 0.014146394 0.15813887
0.0094884746 0.013662998 0.15588461
0.010690537 0.013563064 0.15736841
-0.025360683 0.016011395 0.15854546
-0.02220056 0.016711229 0.15872724
-0.017982561 0.016750777 0.15669997
-0.014894104 0.018815234 0.155
0.0095714238 0.017485159 0.15690909
0.010354697 0.018113472 0.15700002
-0.024615059 0.020968037 0.15900004
-0.016750835 0.020589931 0.15542859
0.0098030977 0.020274771 0.1575
0.0094854794 0.029867314 0.155
0.013169505 0.025966581 0.155
0.0010363468 0.034143202 0.15533331
0.0078496486 0.032938905 0.15526666
0.012607328 0.033454221 0.15730232
-0.012506937 0.038107913 0.15556008
-0.0076345894 0.037803613 0.15611117
-0.0018793569 0.038810927 0.15642186
0.0016101729 0.037672177 0.15643758
0.0072007254 0.037959054 0.15687516
0.011790523 0.037536271 0.15769032
-0.026083471 0.009602759 0.1635
-0.024796858 0.0099033099 0.16350001
0.0140481 0.0092850914 0.1617
0.015196186 0.009400703 0.16242857
-0.02554887 0.010758877 0.16119049
-0.023393463 0.012670739 0.16098431
-0.017217534 0.014126768 0.16168295
0.009852659 0.012453037 0.16100001
0.012464905 0.011896757 0.1611429
0.015320923 0.010246197 0.16350001
-0.025359824 0.018412227 0.16181819
-0.023042601 0.017507559 0.16171673
-0.016542913 0.016106373 0.16247061
-0.01386796 0.019236133 0.16340628
0.012633464 0.015247478 0.16200002
-0.025319068 0.021205164 0.16180001
-0.023362206 0.021707691 0.16303995
-0.013397603 0.021369498 0.16317953
0.013650252 0.033515152 0.16000001
0.008226607 0.0039768182 0.16899996
0.012446834 0.004159037 0.16848612
0.015568358 0.0044788192 0.1684
-0.025975237 0.0085911099 0.16576663
-0.022565059 0.008106593 0.16719049
-0.018098807 0.0068000988 0.16899994
0.0090131517 0.0054960605 0.16899998
0.01320074 0.0066187195 0.1685199
0.016363055 0.0071852761 0.16783541
-0.022743359 0.011019072 0.16686043
-0.01649308 0.013452256 0.16687179
0.01369994 0.01275895 0.1655
0.015379542 0.011013667 0.16600001
-0.016156038 0.016893819 0.16565624
-0.013591926 0.017877057 0.16635713
0.01321174 0.015184659 0.16500001
-0.025197897 0.024873581 0.16500001
-0.022773754 0.023726361 0.16527268
-0.012272821 0.021630853 0.16703226
-0.025228407 0.026922945 0.16750002
-0.023115607 0.027423894 0.16686918
-0.022781081 0.030649705 0.16804348
-0.01292998 0.0035845409 0.17307407
-0.00029900394 0.0032411534 0.17400001
0.0025667551 0.0038900042 0.17104593
0.0056413589 0.004057941 0.17000003
0.016583085 0.0048303986 0.17
-0.021111688 0.0094671538 0.17022729
-0.017052827 0.0085685886 0.17018865
-0.014072268 0.0074685966 0.17236044
0.0029198171 0.0073503815 0.17207691
0.00728954 0.0076311799 0.17071006
0.011681281 0.0083505781 0.17078649
0.017523725 0.0076526366 0.17025001
-0.020925578 0.011526896 0.17046003
-0.017304407 0.011970273 0.17112865
-0.014081176 0.012556772 0.17329574
0.003757033 0.010825991 0.17322217
0.0078585781 0.011614645 0.17316949
0.011260472 0.011192138 0.17194735
0.016479 0.013531638 0.17263411
-0.012715984 0.017275162 0.17204344
0.0091885859 0.015283098 0.17400001
0.015303549 0.01537667 0.17300001
-0.011095949 0.02183184 0.17220405
-0.0093000513 0.023189425 0.17400001
0.0089976806 0.022012606 0.17383336
-0.022399765 0.033164006 0.17099997
-0.010011572 -4.4001958e-05 0.178
-0.006236101 -0.00066363567 0.17894997
-0.0040632621 -0.00047989108 0.17811111
-0.011132685 0.0030968585 0.17550755
-0.0090088556 0.0022588156 0.17810908
-0.0021202294 0.002198695 0.17704673
0.00066880917 0.0023416467 0.17645836
-0.011680765 0.0074269273 0.17635657
-0.009692424 0.0069005261 0.17900001
-0.00078555668 0.0066696913 0.17777142
0.00058439851 0.0078718178 0.17605411
-0.011745218 0.012512486 0.17749596
0.0026823299 0.012716982 0.17592515
0.0067445789 0.013717909 0.1752834
-0.011157209 0.016764306 0.17688464
-0.0062066307 0.01974434 0.17900001
-0.0026850859 0.019789029 0.17900001
0.003351677 0.01760543 0.17810096
0.007376669 0.017490664 0.177478
-0.01042269 0.02081139 0.17550001
-0.0079344874 0.02138566 0.17721204
-0.0023547434 0.020941634 0.17828302
0.002617026 0.021150861 0.17723712
0.0072668344 0.021224016 0.17674465
-0.0072976924 -0.00095994282 0.18013157
-0.0070936987 0.0026157289 0.1806723
-0.0037698676 0.00370772 0.18057691
-0.010124062 0.0086377831 0.18000001
-0.0083045447 0.0074061803 0.18196115
-0.0029496739 0.0076811477 0.1816639
0.000194006 0.0096444245 0.18000001
-0.010124063 0.012525936 0.18000002
-0.009220181 0.011984001 0.18208341
-0.001607224 0.011961887 0.18251893
0.00058207201 0.013214433 0.18113516
-0.0079550054 0.018393882 0.18188424
-0.0023590797 0.018012602 0.18196347
0.00088153844 0.017423803 0.18089713
-0.0080870045 0.020263819 0.18028574
-0.0030373225 0.020668423 0.18028575
-0.0064146747 0.0048316838 0.18500002
-0.0062505989 0.0078155091 0.18521821
-0.00486277 0.0090439972 0.18500002
-0.0068259933 0.012705332 0.18667704
-0.003366237 0.013175638 0.18550731
-0.0072579095 0.016659582 0.18585882
-0.0033602372 0.015939211 0.18506971
