# .PCD v0.7 - Point Cloud Data file format
VERSION 0.7
FIELDS x y z
SIZE 4 4 4
TYPE F F F
COUNT 1 1 1
WIDTH 123
HEIGHT 1
VIEWPOINT 0 0 0 1 0 0 0
POINTS 123
DATA ascii
-0.070783958 -0.075354703 0.3035
-0.066674873 -0.075958945 0.30289286
-0.064245738 -0.076218635 0.30400002
-0.070904002 -0.073732093 0.3037273
-0.067756847 -0.073388919 0.30314639
-0.068435565 -0.062909774 0.30400002
-0.063408159 -0.077092104 0.30712819
-0.07112556 -0.072135113 0.30550003
-0.066659927 -0.071524911 0.30600002
-0.06395147 -0.073476084 0.30764517
-0.07062237 -0.069525696 0.30600002
-0.067986675 -0.067669272 0.30637881
-0.069033302 -0.064137273 0.30536368
-0.085197091 -0.081780635 0.31400001
-0.082552336 -0.081465282 0.31314296
-0.078069195 -0.080253229 0.31400001
-0.061265666 -0.08071617 0.31055558
-0.05712527 -0.081559718 0.31203026
-0.052285951 -0.082110748 0.313463
-0.048883952 -0.083066039 0.31360009
-0.086597212 -0.076052867 0.31400001
-0.081885368 -0.079116262 0.3136667
-0.078245938 -0.078583144 0.31381255
-0.061051868 -0.077453665 0.31095123
-0.057481162 -0.077362008 0.31264874
-0.054005463 -0.07865674 0.31338894
-0.065011092 -0.070183203 0.31
-0.062229402 -0.072420977 0.31224999
-0.058416571 -0.074143611 0.31400001
-0.066199191 -0.066900589 0.31086203
-0.063587762 -0.067792602 0.31266668
-0.07026352 -0.061332729 0.31100005
-0.067445651 -0.062355828 0.31193858
-0.064304128 -0.063648917 0.31326318
-0.07107079 -0.057485033 0.31300005
-0.068854339 -0.058187656 0.31338897
-0.070941299 -0.054541901 0.31400001
-0.069668457 -0.054796468 0.31400001
-0.086617611 -0.081104703 0.31500006
-0.080871612 -0.081019565 0.31500003
-0.078828573 -0.080508813 0.31500003
-0.050566703 -0.080679066 0.31500003
-0.048514765 -0.081614882 0.31550005
-0.0861701 -0.077605277 0.31537926
-0.082424276 -0.077019356 0.31571698
-0.078763358 -0.076422162 0.31668425
-0.055333763 -0.075401247 0.31500003
-0.052123632 -0.077346027 0.31660327
-0.049036302 -0.07830742 0.31791669
-0.085661858 -0.073782206 0.317375
-0.082417682 -0.073786974 0.3175278
-0.078123137 -0.073817603 0.31850004
-0.060511783 -0.071123995 0.31566671
-0.057544187 -0.072253548 0.31601691
-0.053702697 -0.072798632 0.3174524
-0.061469443 -0.067316122 0.31597057
-0.057803255 -0.067728527 0.31811112
-0.054484956 -0.069524884 0.31850004
-0.065277219 -0.060312375 0.31533337
-0.062176127 -0.062316999 0.31679109
-0.057076152 -0.063429289 0.31880781
-0.072358988 -0.056162745 0.31500003
-0.066607937 -0.05720298 0.31579536
-0.063682713 -0.057932705 0.3182728
-0.07103882 -0.052239332 0.31577274
-0.067696378 -0.052563626 0.31697229
-0.064506263 -0.053535398 0.31900001
-0.083707571 -0.085961163 0.324
-0.050850488 -0.075214453 0.32000002
-0.048241612 -0.076029889 0.32017648
-0.085488454 -0.070706479 0.32200003
-0.082191713 -0.071520567 0.32132569
-0.078332901 -0.071609356 0.32154548
-0.051462971 -0.071936235 0.32039395
-0.049417838 -0.073510446 0.32046157
-0.085991144 -0.06807702 0.32339996
-0.08190915 -0.06821873 0.32378057
-0.078423142 -0.068849035 0.32353845
-0.055673879 -0.066323914 0.32022223
-0.053241886 -0.067652076 0.32217652
-0.060252376 -0.063172832 0.32033336
-0.057682496 -0.06175226 0.32056409
-0.054716852 -0.06307257 0.32220003
-0.061375171 -0.056945112 0.32036367
-0.058104366 -0.057864215 0.3218126
-0.082185619 -0.086981311 0.3249999
-0.085924879 -0.066438615 0.32542861
-0.082385011 -0.066263564 0.32499999
-0.07886108 -0.066566639 0.32550001
-0.051522281 -0.06675142 0.32585713
-0.049341884 -0.068646222 0.32678574
-0.086685792 -0.062227011 0.32706982
-0.082348824 -0.062501371 0.32618976
-0.07876683 -0.062633976 0.32648495
-0.055858366 -0.060497008 0.32550001
-0.052660085 -0.062450558 0.32686567
-0.048991784 -0.062065635 0.32856253
-0.086066261 -0.058881138 0.32900003
-0.082862876 -0.058777794 0.32864526
-0.053219281 -0.058868647 0.32829031
-0.090073422 -0.060531575 0.33000001
-0.089181624 -0.060442399 0.33000001
-0.078836776 -0.060264036 0.33000001
-0.06552881 -0.096014753 0.3364
-0.062325023 -0.096246928 0.33759993
-0.05881504 -0.096404828 0.33771431
-0.070543103 -0.093925968 0.33900002
-0.067591161 -0.092966191 0.33771706
-0.062870763 -0.093449451 0.33828583
-0.059735868 -0.093102172 0.33850002
-0.080718733 -0.096123897 0.34122226
-0.077594273 -0.096885286 0.3409999
-0.073655449 -0.096871845 0.34150004
-0.060276628 -0.095167793 0.34
-0.059449688 -0.095443442 0.34
-0.081227869 -0.092446551 0.34225002
-0.077331439 -0.092483692 0.34177342
-0.072985873 -0.092542 0.34075668
-0.060552277 -0.094616503 0.34
-0.059449688 -0.094616503 0.34
-0.080459379 -0.089148246 0.34300002
-0.077807188 -0.089012511 0.34264705
-0.073427856 -0.089821622 0.34133336
