# .PCD v0.7 - Point Cloud Data file format
VERSION 0.7
FIELDS x y z
SIZE 4 4 4
TYPE F F F
COUNT 1 1 1
WIDTH 218
HEIGHT 1
VIEWPOINT 0 0 0 1 0 0 0
POINTS 218
DATA ascii
-0.031146981 0.028823048 0.13288231
-0.027578389 0.028720306 0.13274327
-0.030984545 0.030613143 0.13392313
-0.027589206 0.031864591 0.13330437
-0.028115241 0.035506316 0.13381819
-0.035678703 0.024621163 0.13869233
-0.034928121 0.024743691 0.13900001
-0.018018998 0.024214769 0.13865001
-0.03562253 0.025857044 0.13858333
-0.033558082 0.027401304 0.13732696
-0.026333006 0.027581742 0.13590007
-0.0235519 0.027495012 0.13799502
-0.017914455 0.026714532 0.13860376
-0.031414855 0.03290695 0.13576423
-0.026616447 0.033289626 0.13600005
-0.024231058 0.031818733 0.1380209
-0.018137354 0.03133174 0.13900001
-0.030876992 0.037123296 0.13758066
-0.026972717 0.03721638 0.13710268
-0.027390603 0.040276822 0.13900001
-0.04598742 0.023421843 0.14360349
-0.042730898 0.02359527 0.14341161
-0.037470445 0.023601064 0.14214072
-0.034857698 0.024750281 0.14142859
-0.021021778 0.024292642 0.14047995
-0.017223941 0.023574313 0.14187947
-0.01263541 0.022880109 0.1434761
-0.0089599285 0.021624802 0.14400004
-0.045437425 0.025344467 0.1435
-0.043175772 0.025613306 0.14380006
-0.037434421 0.027133975 0.14207144
-0.034300603 0.026594499 0.14192307
-0.025490485 0.026683327 0.14
-0.021093268 0.027653841 0.14046876
-0.017737798 0.027433859 0.14169511
-0.01249072 0.025721833 0.14400004
-0.035795189 0.031996161 0.14360002
-0.034757759 0.03164782 0.14140001
-0.021919804 0.032692216 0.14199536
-0.017928787 0.032343108 0.14231341
-0.030260593 0.039600357 0.14014286
-0.026155088 0.038524445 0.14008337
-0.02340525 0.037124496 0.14204712
-0.019308345 0.035756987 0.14360002
-0.030566823 0.042100571 0.14132874
-0.027340706 0.042728972 0.14166369
-0.023904629 0.041868195 0.14307527
-0.01927519 0.042282104 0.14331253
-0.030265426 0.045340478 0.14266668
-0.027299481 0.046865087 0.14351118
-0.024708824 0.045414247 0.14400001
-0.050330658 0.019727413 0.149
-0.049627576 0.019649293 0.149
-0.0075558508 0.018553726 0.14780772
-0.050648261 0.021637246 0.14748836
-0.048377462 0.022553865 0.14664656
-0.043231767 0.022727665 0.14557143
-0.035429649 0.024849841 0.14650001
-0.015149551 0.02474745 0.14500001
-0.011617558 0.02341974 0.14528069
-0.0075352634 0.022658452 0.14673278
-0.050225653 0.025725039 0.148
-0.047245555 0.027121551 0.14700006
-0.042647079 0.027844602 0.14617281
-0.038845342 0.028311381 0.14522392
-0.034230813 0.02746138 0.14703389
-0.015672496 0.027943781 0.14605479
-0.012388582 0.027600186 0.1468019
-0.0079726502 0.027427634 0.14814222
-0.045749091 0.031709336 0.14827994
-0.043230183 0.032107726 0.14828086
-0.038155466 0.032587022 0.14700912
-0.01572983 0.032421388 0.1471446
-0.012459465 0.031304728 0.14880382
-0.0092137503 0.030377712 0.149
-0.042926665 0.035481524 0.149
-0.036635861 0.036507778 0.14793545
-0.034893569 0.036033284 0.14533335
-0.02159874 0.038378362 0.14608513
-0.017824743 0.037805483 0.14688824
-0.0223372 0.042762317 0.1465304
-0.019052997 0.042405162 0.14698552
-0.030611783 0.047715522 0.1455
-0.01883588 0.046649802 0.14693181
-0.01264492 0.014764449 0.15400003
-0.050904378 0.019623879 0.15000001
-0.047440529 0.018547254 0.15266202
-0.011597686 0.017225206 0.15243743
-0.0093806265 0.018130237 0.15027033
-0.051218953 0.020095743 0.15000001
-0.047468491 0.021243135 0.15224801
-0.044510696 0.023215342 0.15400001
-0.010762221 0.020960784 0.15229169
-0.0093625905 0.020773262 0.15173334
-0.050275229 0.027488265 0.15000001
-0.049276978 0.028699001 0.15052384
-0.033936974 0.028274706 0.15000001
-0.0061223442 0.029443122 0.15000001
-0.048694678 0.032465603 0.15243025
-0.04199801 0.03349591 0.15049383
-0.039369952 0.034566209 0.15000001
-0.033737388 0.030527525 0.15025
-0.015042799 0.033779774 0.14999999
-0.012494054 0.033629466 0.15113206
-0.0077621615 0.032643531 0.15218899
-0.045762122 0.03739652 0.15254286
-0.04246562 0.037582614 0.15230876
-0.038516205 0.038121983 0.15187755
-0.015759695 0.037631903 0.15026985
-0.012631511 0.037119351 0.15271503
-0.0087686209 0.037412919 0.15354834
-0.045358475 0.040534288 0.15400003
-0.043064173 0.041440401 0.15352502
-0.037574247 0.041189242 0.15390913
-0.021806166 0.044003472 0.15000001
-0.017315554 0.042500742 0.15220457
-0.014040289 0.041252144 0.15373328
-0.0064009498 0.040251695 0.15400003
-0.04257701 0.01449991 0.15854545
-0.015261774 0.013871073 0.15727273
-0.013981459 0.014213506 0.15694289
-0.045458212 0.018112577 0.15580006
-0.042748433 0.017490685 0.15749082
-0.03971301 0.01873843 0.15785715
-0.015298071 0.016401974 0.15628573
-0.013970743 0.017674336 0.15574996
-0.045421716 0.021766772 0.1566786
-0.043293167 0.022055823 0.15831693
-0.039762329 0.021473901 0.15673684
-0.015675267 0.023018023 0.1573
-0.01331911 0.021313313 0.15672493
-0.031839803 0.027470311 0.15900002
-0.048932645 0.034371737 0.155
-0.0067675761 0.034743235 0.155
-0.0504639 0.037689939 0.15850002
-0.048831709 0.037579957 0.15699998
-0.04079064 0.03989004 0.155
-0.039598744 0.039835863 0.155
-0.012953295 0.039246283 0.15500005
-0.0073829819 0.037587818 0.15557155
-0.043381121 0.013159274 0.16221248
-0.01536265 0.012206813 0.16375002
-0.014232527 0.012603388 0.16329634
-0.042556193 0.017618785 0.16069406
-0.039825253 0.019651692 0.16050002
-0.042385083 0.022141777 0.16161624
-0.039701711 0.020428818 0.16000001
-0.040491816 0.025417093 0.1636
-0.039662447 0.026098574 0.164
-0.031371139 0.028529249 0.16241071
-0.029221488 0.028901339 0.163
-0.031164147 0.030165028 0.16253848
-0.045168027 0.0086789113 0.16633335
-0.042906221 0.0083299167 0.1680178
-0.037754055 0.0084482068 0.16804302
-0.032436002 0.0088860923 0.16606817
-0.02728813 0.0084152548 0.16613609
-0.022348257 0.0082616508 0.16772594
-0.018798145 0.007733088 0.16885938
-0.014297866 0.009994166 0.16500001
-0.043487109 0.011579655 0.16672727
-0.03533116 0.011028849 0.16891669
-0.032024022 0.012187616 0.16757667
-0.02747013 0.012413403 0.16774635
-0.023494635 0.011988018 0.16862261
-0.015505631 0.010826197 0.16720001
-0.014312482 0.010869927 0.16516665
-0.042466566 0.015907193 0.16900001
-0.031241983 0.015628848 0.16850004
-0.02781201 0.015737688 0.16899997
-0.041306376 0.02436972 0.16718183
-0.023327807 0.024767732 0.16900001
-0.040551588 0.025487805 0.16600001
-0.03866199 0.026861185 0.16669564
-0.031411465 0.027438434 0.16775756
-0.028338976 0.02798458 0.16737093
-0.023800369 0.025752237 0.16900001
-0.030042356 0.030064072 0.16500001
-0.041508485 0.0092381379 0.17018521
-0.037921049 0.0098108575 0.16999999
-0.017091149 0.0086095985 0.17028573
-0.041780677 0.01253849 0.17093268
-0.037819006 0.012654854 0.17135441
-0.03405913 0.013787454 0.17043753
-0.027981743 0.014931764 0.17
-0.021449681 0.013036442 0.17127551
-0.018354496 0.012308585 0.17176989
-0.041522607 0.01731742 0.17308618
-0.037603308 0.017302789 0.17341405
-0.032684717 0.017865879 0.17172065
-0.027408171 0.01775085 0.17122565
-0.022931226 0.017188488 0.17259736
-0.018767089 0.015970703 0.17390911
-0.041644692 0.022746788 0.17289126
-0.038992807 0.022525318 0.1737037
-0.031516496 0.022395503 0.17244329
-0.027596308 0.022616114 0.17306945
-0.023526778 0.022947436 0.17308076
-0.040872063 0.02579423 0.17223077
-0.037691064 0.027148357 0.17249633
-0.032783609 0.026164025 0.17169565
-0.027543556 0.026391959 0.17237741
-0.02282921 0.025751781 0.17152631
-0.019274183 0.02568296 0.17400001
-0.037179276 0.030570872 0.17355557
-0.017733434 0.013168905 0.17500001
-0.041405223 0.018673973 0.17500001
-0.037257791 0.019498516 0.17544444
-0.020917648 0.01850481 0.17528272
-0.019137712 0.01849228 0.17579556
-0.041287474 0.022434011 0.17563081
-0.037596252 0.02261146 0.17597029
-0.034071568 0.022903502 0.17584725
-0.021545289 0.022226144 0.17528972
-0.018721219 0.022669774 0.17591569
-0.037184961 0.025609778 0.17595239
-0.020698344 0.025683044 0.17524999
-0.018786514 0.02534068 0.17578575
