# .PCD v0.7 - Point Cloud Data file format
VERSION 0.7
FIELDS x y z
SIZE 4 4 4
TYPE F F F
COUNT 1 1 1
WIDTH 236
HEIGHT 1
VIEWPOINT 0 0 0 1 0 0 0
POINTS 236
DATA ascii
-0.027524387 0.019673448 0.134
-0.02762977 0.020200362 0.134
-0.027500724 0.02281077 0.13756703
-0.021877777 0.024564166 0.13881248
-0.018749516 0.022848899 0.13900001
-0.0064909062 0.024145335 0.13899998
-0.031098412 0.027340699 0.13722228
-0.027583117 0.027310837 0.13686034
-0.022712344 0.025937106 0.13874042
-0.0069435067 0.025197146 0.13900001
-0.030785391 0.03170481 0.13860711
-0.027554326 0.032162812 0.13800001
-0.026668774 0.035587728 0.13900004
-0.028426521 0.019930443 0.14
-0.032789104 0.024055989 0.14265855
-0.027510587 0.023534911 0.14073467
-0.021206005 0.024230134 0.14083333
-0.017476719 0.023987241 0.14110167
-0.012574573 0.024149252 0.14090212
-0.0079512559 0.024048742 0.14056525
-0.0035662593 0.02305991 0.14232831
-0.032320641 0.025962096 0.1421143
-0.026055081 0.028341686 0.14046511
-0.022406463 0.0282574 0.14091671
-0.017782994 0.027335083 0.14243616
-0.01217524 0.027128771 0.14207695
-0.0074205445 0.027562816 0.14172637
-0.0041238749 0.02701606 0.14214812
-0.030702155 0.033920363 0.14003453
-0.026887251 0.032903265 0.14123575
-0.022541599 0.032480538 0.14284171
-0.018144641 0.031879097 0.14383039
-0.012154575 0.030508775 0.14400002
-0.0068699573 0.031165488 0.1436552
-0.0047773351 0.030918619 0.14400001
-0.030602872 0.037346777 0.14150824
-0.027265452 0.037424292 0.14211783
-0.022108717 0.03614286 0.14393622
-0.016857026 0.035448503 0.14400001
-0.030432295 0.041064117 0.14400004
-0.026440728 0.040787905 0.14347064
-0.035722304 0.019649293 0.14900002
-0.034941111 0.019805532 0.149
-0.0055378079 0.019074213 0.14818752
-0.0046924092 0.019576222 0.14766668
-0.035397142 0.021450581 0.1488421
-0.033635639 0.022563029 0.14725
-0.028857162 0.022590246 0.14742105
-0.014641657 0.023846468 0.14600001
-0.0054296968 0.021816256 0.14627998
-0.0040147975 0.020940555 0.14659458
-0.035135292 0.029082481 0.1485
-0.033374161 0.026917031 0.1458125
-0.026755288 0.025945079 0.14866666
-0.015468964 0.028804 0.14514813
-0.013891646 0.029099116 0.14586206
-0.0084595848 0.029764928 0.14500001
-0.003131086 0.027621388 0.14659259
-0.03445942 0.031230614 0.14827275
-0.020167027 0.034630362 0.14500001
-0.016845388 0.032917578 0.14601886
-0.012082055 0.032331452 0.14680924
-0.0078426944 0.033176512 0.1463434
-0.0039242734 0.032478098 0.14711343
-0.026372407 0.038517855 0.1451
-0.022581097 0.037811358 0.14578162
-0.017731572 0.037314765 0.14766131
-0.011270896 0.03545548 0.14900002
-0.006776134 0.036238875 0.14771605
-0.004333186 0.036761358 0.14777084
-0.03038699 0.043102864 0.1452069
-0.027612014 0.04287935 0.14594536
-0.02278238 0.041771535 0.14777566
-0.019745028 0.04108844 0.14835294
-0.042216916 0.01777957 0.15373339
-0.038094413 0.019009989 0.15159555
-0.0062468648 0.017919846 0.15232651
-0.0047184443 0.0193833 0.15183336
-0.040342238 0.020565167 0.15350002
-0.037872385 0.022529537 0.15234785
-0.033046186 0.021435278 0.15211293
-0.029133325 0.02184183 0.15121055
-0.016574314 0.024830163 0.15400001
-0.0062844949 0.022383219 0.15194999
-0.0036145709 0.020835549 0.15200001
-0.03742554 0.026320467 0.15301752
-0.027012294 0.026148815 0.15080002
-0.011786249 0.025361082 0.15350002
-0.0086527895 0.025264524 0.15300003
-0.0026550936 0.028479287 0.1504
-0.035130788 0.03320311 0.15116668
-0.03444425 0.033610165 0.15014286
-0.0150428 0.034015704 0.15000001
-0.014152546 0.033976175 0.15017651
-0.0027058516 0.031985886 0.15018184
-0.035206512 0.036677588 0.15333335
-0.034392189 0.036989927 0.15175001
-0.016487516 0.038626559 0.15000007
-0.012730961 0.037584268 0.15150292
-0.0079261605 0.038514491 0.15083614
-0.0035258473 0.038155124 0.15111113
-0.03417585 0.040655401 0.15400001
-0.022784604 0.043908991 0.15072222
-0.017593907 0.042780206 0.15189259
-0.013478847 0.042053908 0.15301016
-0.0073483954 0.042353977 0.15236828
-0.0039182925 0.042191543 0.15263416
-0.042650476 0.014352656 0.15822499
-0.028332269 0.013311311 0.15884618
-0.0058512669 0.014079364 0.15657143
-0.0046874192 0.013975622 0.15818751
-0.042542182 0.016688999 0.15705051
-0.038517006 0.018715762 0.15706249
-0.0060615297 0.016260246 0.15577196
-0.0045997384 0.017276105 0.15755263
-0.042427763 0.022502439 0.15689436
-0.037213314 0.021845365 0.15612501
-0.03334466 0.021323608 0.15694444
-0.029339945 0.022797624 0.15779412
-0.0200601 0.024988003 0.156
-0.018205868 0.024989698 0.15549999
-0.0067966841 0.024338312 0.15566668
-0.0040438347 0.020965509 0.15650001
-0.041625336 0.026235515 0.15831427
-0.038668931 0.028380767 0.15594549
-0.027112216 0.027136592 0.15866667
-0.020802176 0.025179131 0.15740001
-0.016859088 0.025232546 0.15818183
-0.012426225 0.025544496 0.15666668
-0.0088353259 0.025534069 0.15700001
-0.040097166 0.030660288 0.15825
-0.038412474 0.03213286 0.15789473
-0.035549458 0.038039517 0.1552
-0.012459699 0.039171766 0.15638886
-0.035389673 0.041011177 0.15700001
-0.028541211 0.0091337897 0.16276002
-0.0035492079 0.0094176922 0.16400002
-0.040831387 0.013874469 0.16000001
-0.037447311 0.013289415 0.16183852
-0.033553623 0.012643999 0.1633999
-0.028408561 0.012026601 0.16225001
-0.0058404123 0.013044615 0.16150002
-0.0034853371 0.01231727 0.16175529
-0.040776145 0.016271366 0.16004758
-0.037817549 0.016901063 0.16257718
-0.03446902 0.015298991 0.16400002
-0.028258482 0.017375182 0.16318007
-0.0078901881 0.017906541 0.16290911
-0.0036281233 0.016741525 0.16190003
-0.036413241 0.020775853 0.16295655
-0.032732107 0.020794578 0.16188891
-0.028587915 0.023104986 0.1619412
-0.0075781494 0.020667432 0.16187499
-0.0043283938 0.0205558 0.16100001
-0.042616159 0.028217856 0.16125348
-0.028723085 0.026557602 0.16163334
-0.019233348 0.025126478 0.16000001
-0.042038236 0.032229368 0.16236711
-0.038560852 0.034320466 0.16000001
-0.040178351 0.036416642 0.164
-0.038443599 0.037227742 0.16208626
-0.031141961 0.0083385399 0.16723885
-0.02866455 0.0077294754 0.16761227
-0.020270921 0.006692233 0.16900001
-0.01739007 0.0080624362 0.16734953
-0.012511116 0.0081317918 0.16521552
-0.0075122546 0.0080865063 0.16524166
-0.0030845981 0.0088368468 0.16598335
-0.031623047 0.012423733 0.16676475
-0.027731633 0.012764935 0.16697618
-0.015990766 0.012085349 0.16774242
-0.01249317 0.01239033 0.16744822
-0.0077736937 0.01216997 0.16723348
-0.0021025708 0.011894993 0.16716668
-0.036316492 0.018937465 0.16502322
-0.033126794 0.017593144 0.16692443
-0.027986124 0.017553348 0.16702898
-0.015294254 0.01531649 0.16900001
-0.011823479 0.015706034 0.16900003
-0.0087389555 0.016399004 0.16839997
-0.0025104817 0.016835742 0.16676667
-0.036491271 0.020351224 0.1651739
-0.032086201 0.021062452 0.16745456
-0.027975844 0.02236096 0.16693184
-0.027614366 0.027169112 0.16701612
-0.023504967 0.026337773 0.16775002
-0.015390188 0.026471637 0.16857146
-0.013035316 0.026926458 0.16883336
-0.0080876835 0.026717052 0.16900001
-0.043205224 0.034107909 0.16542859
-0.027058739 0.0041468996 0.17274135
-0.023377184 0.0045253034 0.17204764
-0.030434107 0.0059134536 0.17110001
-0.027725179 0.0067887385 0.1723505
-0.022314258 0.007471181 0.17141922
-0.01938504 0.009593728 0.17016667
-0.027673593 0.012300001 0.17233332
-0.021667683 0.011420881 0.17349993
-0.018248722 0.012719088 0.1712528
-0.0012240255 0.014074562 0.17016669
-0.031325005 0.01777255 0.17004353
-0.027389267 0.017375097 0.17173335
-0.016811311 0.01726927 0.17302032
-0.012654487 0.017977593 0.1712276
-0.0092951022 0.017536595 0.1710857
-0.0012273209 0.01635522 0.17069447
-0.031086426 0.021185694 0.17000002
-0.02679266 0.023051351 0.17246664
-0.022620184 0.024056077 0.1725256
-0.016872209 0.023509031 0.17346874
-0.012459477 0.022644496 0.17309712
-0.0091724768 0.022724867 0.17362705
-0.026325859 0.02638454 0.17071639
-0.022545321 0.026075609 0.17099999
-0.017566545 0.025898175 0.17140001
-0.012453637 0.026335109 0.1716273
-0.0090196608 0.026392898 0.17274998
-0.026256464 0.008201031 0.17602599
-0.024617011 0.009048244 0.176
-0.026583349 0.012425193 0.17725781
-0.022612922 0.013048422 0.17623177
-0.019808393 0.014127712 0.17550001
-0.027276868 0.017117964 0.17741305
-0.021548072 0.017280398 0.17720389
-0.018944027 0.017891599 0.17611635
-0.026177559 0.022634206 0.17659621
-0.021731718 0.021976575 0.17692319
-0.018175526 0.021967711 0.17607215
-0.025538251 0.014079936 0.18000004
-0.02468201 0.014159313 0.18033335
-0.026133846 0.017713947 0.18055074
-0.02414405 0.017953411 0.18103516
-0.019561319 0.019585004 0.18000001
-0.025824888 0.021490011 0.18051431
-0.024168486 0.021165006 0.18100004
-0.019710029 0.020395961 0.1805
