# .PCD v0.7 - Point Cloud Data file format
VERSION 0.7
FIELDS x y z
SIZE 4 4 4
TYPE F F F
COUNT 1 1 1
WIDTH 129
HEIGHT 1
VIEWPOINT 0 0 0 1 0 0 0
POINTS 129
DATA ascii
-0.0023754684 -0.066242151 0.28163338
0.0028247701 -0.065884687 0.2824167
0.0060053817 -0.066251673 0.28350005
-0.0024123387 -0.062615588 0.28166229
0.0026272272 -0.062656946 0.28286916
0.0056010433 -0.063663699 0.28400001
-0.0025208979 -0.059185088 0.2829355
0.0010871452 -0.059561342 0.2836
0.02335022 -0.070192955 0.28900003
0.0082503846 -0.066617832 0.28550002
0.012487358 -0.066836394 0.28712499
0.017479125 -0.067013584 0.28664818
0.022161994 -0.06757877 0.28740737
0.025526481 -0.067070372 0.28800002
0.0048163901 -0.060416795 0.28525001
0.0075505297 -0.062380768 0.28644112
0.011920149 -0.063352793 0.28831244
0.017770994 -0.063497446 0.28811312
0.020389728 -0.064266078 0.28799999
-0.0022048519 -0.056986205 0.28657404
0.0026565057 -0.057545893 0.28689697
0.006775361 -0.058933921 0.28804004
-0.0023460677 -0.052813966 0.28836232
0.0012845382 -0.053787246 0.28845838
-0.0034380285 -0.049965091 0.289
0.022710048 -0.0724262 0.29281819
0.022881517 -0.06668359 0.29166669
0.00971625 -0.060012609 0.29000002
0.012868011 -0.061257146 0.2902647
0.017147502 -0.061038312 0.29003331
0.02145493 -0.062778376 0.29184854
0.0042704446 -0.055330146 0.29060003
0.0077791624 -0.056879051 0.29093659
0.012609072 -0.057700835 0.29192957
0.01739905 -0.057456397 0.29157147
0.020652417 -0.057524279 0.29170364
-0.0018984135 -0.050296344 0.29009998
0.0026223552 -0.052117687 0.29149017
0.0072512594 -0.052709132 0.29291424
0.010515992 -0.054086603 0.29357144
0.017869571 -0.054005627 0.29323083
0.020835236 -0.054408044 0.2931667
-0.0020508161 -0.047455672 0.29200003
0.0020966649 -0.048060708 0.29314542
0.0064816764 -0.049378961 0.29372227
-0.0029007266 -0.044095453 0.29348007
-0.015819602 -0.076241642 0.29712501
-0.013354145 -0.075998172 0.29766667
-0.016342979 -0.072697841 0.29699996
-0.012359585 -0.072517365 0.2965146
-0.0084430575 -0.072133794 0.29608333
0.022081131 -0.074201323 0.29500002
-0.016280321 -0.068382412 0.29755554
-0.012503735 -0.068249151 0.29775995
-0.0087313112 -0.067856289 0.2978518
0.023276951 -0.063678116 0.29500002
0.012688338 -0.055630274 0.29570001
0.0092858616 -0.050643682 0.29500002
0.01261019 -0.052247237 0.2964848
0.017207736 -0.052023213 0.29641998
0.021337852 -0.052437034 0.29712498
0.0036175486 -0.046142768 0.29515794
0.0078556426 -0.047106925 0.29652238
0.012329932 -0.047992282 0.29833928
0.017714193 -0.048518471 0.29839018
0.020843903 -0.048823431 0.29799995
-0.0022923383 -0.041711044 0.2957499
0.0024817509 -0.042615481 0.29695842
0.010211715 -0.044227857 0.29900002
-0.010517364 -0.080161996 0.30400002
-0.011487905 -0.078470066 0.30361536
-0.0095315231 -0.07671155 0.30400002
-0.016144497 -0.066119738 0.30066669
-0.012388167 -0.066036917 0.30000007
-0.0092145074 -0.06721206 0.3001
-0.016211808 -0.062574819 0.30239403
-0.012591404 -0.062696241 0.30208573
-0.0091071967 -0.062830321 0.30234483
0.023637924 -0.061580196 0.30112502
-0.016291302 -0.059229277 0.30366665
-0.013780065 -0.059468288 0.3038182
-0.0090386029 -0.059623636 0.30400002
0.02376347 -0.057583898 0.3014546
0.023853157 -0.053575855 0.30045006
0.013671609 -0.04577316 0.30014294
0.017700784 -0.04587128 0.30056256
0.021808609 -0.046652462 0.30138469
-0.010057419 -0.080425687 0.30500001
-0.0068816305 -0.080876783 0.30690008
-0.0032462673 -0.081281915 0.3085385
0.023597857 -0.081772059 0.30894446
-0.010269365 -0.07894206 0.30500004
-0.0069424538 -0.077825584 0.30733958
-0.0035371517 -0.078222215 0.30869237
0.020874422 -0.079977371 0.30900002
-0.011046503 -0.060273092 0.30500001
-0.016261024 -0.057177179 0.30775005
-0.012264581 -0.05720615 0.3071667
-0.0089742085 -0.057119459 0.30795461
-0.015915357 -0.05406706 0.30900002
-0.012404591 -0.053023096 0.30886364
-0.0089685218 -0.05332661 0.30885717
0.0079572052 -0.085163385 0.31333336
-0.0020555921 -0.081431866 0.31025001
0.0087885428 -0.082679018 0.31300002
0.012577834 -0.082251042 0.31200007
0.017449079 -0.08235541 0.31150827
0.021275474 -0.082734384 0.31054544
-0.0026197203 -0.077974275 0.30999997
0.0097331442 -0.079553217 0.31325001
0.012359518 -0.078398786 0.31289995
0.017052403 -0.078653902 0.3127059
-0.016292909 -0.05176153 0.31017643
-0.012817346 -0.050830312 0.31015
-0.0089191608 -0.051266458 0.31133336
-0.00027690627 -0.086072676 0.31820002
0.0026764844 -0.086729504 0.31894886
0.0055154497 -0.086962193 0.31900001
-0.00049068796 -0.08286076 0.31815386
0.0026289558 -0.084212221 0.31894743
0.0065070763 -0.082174577 0.31704545
-0.00069146155 -0.079720795 0.31900001
0.0073476955 -0.079300381 0.31766668
-0.00017476508 -0.080489576 0.32000002
0.0024598651 -0.082049929 0.32034144
0.0050138752 -0.081579186 0.32000002
-0.00017531123 -0.078607112 0.32100001
0.0020794235 -0.078797802 0.32100004
0.0051868297 -0.079019457 0.32000002
