# .PCD v0.7 - Point Cloud Data file format
VERSION 0.7
FIELDS x y z
SIZE 4 4 4
TYPE F F F
COUNT 1 1 1
WIDTH 155
HEIGHT 1
VIEWPOINT 0 0 0 1 0 0 0
POINTS 155
DATA ascii
0.0775415 -0.020380842 0.20627584
0.08252608 -0.020505978 0.20585714
0.077256478 -0.0175351 0.2065091
0.082152799 -0.01785663 0.20713334
0.085213594 -0.018086173 0.20799999
0.078204401 -0.013043677 0.20813249
0.081121668 -0.013250154 0.20856105
0.073561639 -0.025468107 0.21333335
0.089389756 -0.025249239 0.21150002
0.09126544 -0.025363222 0.21137501
0.074004613 -0.022768117 0.21334615
0.075582221 -0.022187533 0.21209374
0.088175781 -0.022601055 0.21107236
0.092603892 -0.02254888 0.21262504
0.097118795 -0.022524241 0.21333332
0.074523747 -0.019283473 0.21325001
0.075224422 -0.018215109 0.21255557
0.087868474 -0.018315176 0.21380003
0.092134692 -0.019708686 0.21400008
0.095999449 -0.01999585 0.21400002
0.076818585 -0.011855518 0.21040426
0.082407303 -0.011199726 0.21100001
0.078116313 -0.0077818912 0.21186678
0.081934422 -0.0084127439 0.21252939
0.078606561 -0.0045981556 0.214
0.059695967 -0.027383827 0.21850002
0.062719986 -0.026981613 0.21899991
0.067445673 -0.026398107 0.21815492
0.071484543 -0.025890471 0.21600005
0.099662811 -0.0264997 0.21900001
0.10068372 -0.027498415 0.21900004
0.064254515 -0.024622759 0.21900001
0.068585768 -0.023442153 0.21789828
0.071771793 -0.022366842 0.21619798
0.098796859 -0.020497398 0.21522222
0.10004874 -0.020883193 0.21600001
0.073071115 -0.017859215 0.21679626
0.075415246 -0.016093407 0.21544445
0.088633664 -0.017415321 0.21521746
0.092570178 -0.017319864 0.21585858
0.097323991 -0.017796595 0.21675459
0.10051192 -0.019748382 0.21700001
0.073947817 -0.012789104 0.2170303
0.075786963 -0.012326622 0.21590246
0.087950595 -0.012680151 0.21692193
0.092488661 -0.013625738 0.21813338
0.095811725 -0.013844334 0.21825002
0.074316129 -0.0085132793 0.21760714
0.076422811 -0.0073006321 0.21713112
0.084025487 -0.0066612377 0.21615383
0.087348044 -0.0075487229 0.21779174
0.090205662 -0.0092333257 0.21879999
0.078376427 -0.0026892335 0.21714702
0.080690473 -0.002176129 0.21675004
0.086251467 -0.0045460258 0.21775001
0.079592861 0.0011950856 0.21835718
0.080900438 0.0016489503 0.21837498
0.062448647 -0.030948408 0.2237778
0.094674125 -0.030555163 0.22400001
0.096873522 -0.030815028 0.22344674
0.1000368 -0.030237963 0.223
0.059834849 -0.025303837 0.22175001
0.061461981 -0.027001362 0.22021055
0.065159433 -0.02804758 0.22000001
0.097856611 -0.02831113 0.22282714
0.10079684 -0.028065739 0.22058336
0.059900727 -0.022461815 0.22300003
0.062456511 -0.022347916 0.22167404
0.067307457 -0.021847187 0.22105439
0.059806459 -0.01984062 0.22400001
0.063234642 -0.018592346 0.22345448
0.067343324 -0.018007679 0.22274387
0.071032859 -0.016904388 0.22032611
0.099761173 -0.015681323 0.22000001
0.10011789 -0.015384056 0.22000001
0.072173879 -0.01254037 0.2223095
0.092966102 -0.011730612 0.22041821
0.097515807 -0.012592438 0.22112124
0.10011789 -0.014848976 0.22000001
0.073524214 -0.0080086095 0.22371429
0.075515568 -0.005778207 0.22281818
0.083844118 -0.0052333754 0.22066669
0.089207277 -0.0061478913 0.22010003
0.092784032 -0.0077721858 0.22212346
0.096642658 -0.0081666317 0.22284748
0.074696481 -0.0039313259 0.22185716
0.076251186 -0.002319918 0.22112793
0.084258094 -0.0017351409 0.22257146
0.087225646 -0.0024535016 0.22205885
0.091526352 -0.0048281564 0.22400002
0.063964143 -0.032293502 0.22530767
0.066703923 -0.03187874 0.2272369
0.094488733 -0.030873984 0.22500001
0.095644012 -0.032150876 0.22500001
0.094610348 -0.028928246 0.22500001
0.0954616 -0.028320201 0.22500001
0.062505178 -0.016463945 0.22549126
0.068071283 -0.016409429 0.22548568
0.070342466 -0.01552508 0.2273
0.06345351 -0.012795011 0.22746575
0.067094289 -0.012496681 0.22691996
0.070759013 -0.013480546 0.22858337
0.064390406 -0.0094690286 0.229
0.06797076 -0.0081951981 0.2285424
0.072216384 -0.0074888151 0.22680005
0.094367124 -0.0057009719 0.22500001
0.097872213 -0.0060009868 0.22572492
0.10148633 -0.0074993083 0.2274334
0.073638715 -0.0026374725 0.22618333
0.075031333 -0.0020983131 0.22500001
0.069125272 -0.036352307 0.23357144
0.070747912 -0.036217507 0.23392858
0.06953907 -0.034441397 0.2326667
0.070709854 -0.034994107 0.23300001
0.061756697 -0.011434278 0.2318919
0.069985889 -0.011197902 0.23
0.070934415 -0.01177238 0.23038888
0.063589744 -0.0077682133 0.23172218
0.066780858 -0.0066065001 0.23103693
0.071233444 -0.0066019995 0.23070587
0.082851559 -0.040433221 0.23854546
0.088435248 -0.040375918 0.23800002
0.092605166 -0.04080268 0.23804344
0.095796533 -0.040815625 0.2387273
0.069602117 -0.037580729 0.23500001
0.071126282 -0.03751722 0.23500001
0.083459578 -0.03837179 0.23861113
0.08752501 -0.037843682 0.23840983
0.0922447 -0.038410179 0.23860535
0.095816493 -0.038607929 0.23900004
0.08938811 -0.034732662 0.23900001
0.073189415 -0.04247782 0.24300002
0.077270925 -0.041531261 0.24232104
0.080850177 -0.040960312 0.24038462
0.098518156 -0.040345278 0.24200001
0.10035773 -0.040206894 0.24400002
0.074716404 -0.038307764 0.24200001
0.077714346 -0.037285503 0.24263154
0.081626438 -0.036916342 0.24069837
0.086613566 -0.035550151 0.24000001
0.093277879 -0.036206454 0.23999991
0.097667314 -0.036933959 0.24115685
0.10055318 -0.038703684 0.243875
0.078234397 -0.03387152 0.24387878
0.0826369 -0.032723486 0.24244949
0.087318197 -0.032675698 0.2411775
0.092410579 -0.032700114 0.24157131
0.096574977 -0.032755438 0.24132395
0.083888337 -0.029516578 0.24245457
0.087826282 -0.028549086 0.24265306
0.091992058 -0.028297501 0.24330889
0.096055761 -0.029691942 0.24375001
0.077638514 -0.03282382 0.24499992
0.080310389 -0.03143343 0.245
0.094015695 -0.028255388 0.245
