# .PCD v0.7 - Point Cloud Data file format
VERSION 0.7
FIELDS x y z
SIZE 4 4 4
TYPE F F F
COUNT 1 1 1
WIDTH 183
HEIGHT 1
VIEWPOINT 0 0 0 1 0 0 0
POINTS 183
DATA ascii
0.0097916275 -0.02292599 0.214
0.012418545 -0.02220056 0.21363953
0.015150699 -0.023060931 0.21400002
0.012499695 -0.019676615 0.21400005
0.0048517613 -0.02507931 0.21900001
0.0064497003 -0.025197675 0.21900001
0.018361613 -0.025807582 0.21764287
0.020780426 -0.02599242 0.21900001
0.0048517613 -0.024014018 0.21900001
0.0073879096 -0.022295348 0.21689582
0.013147121 -0.021159496 0.21525002
0.016964775 -0.022595098 0.21669477
0.020870607 -0.024092931 0.219
0.0081219412 -0.018264428 0.21817806
0.012643318 -0.017246757 0.21706958
0.015080414 -0.019662652 0.21800001
0.013114374 -0.013697361 0.21861115
-0.0061465264 -0.0273552 0.22399999
-0.0022647623 -0.026776591 0.22306964
0.0021101153 -0.026327375 0.2217143
0.0059440723 -0.025550546 0.22000001
0.019507255 -0.026076462 0.22144444
0.022781979 -0.027202163 0.2228072
-0.0019895113 -0.024205154 0.22382143
0.0032983881 -0.022939079 0.221791
0.019107947 -0.02182433 0.22087499
0.021368485 -0.022301242 0.22159998
0.0046628411 -0.019638697 0.22275001
0.007564202 -0.016071413 0.22056247
0.010224701 -0.015384056 0.22000001
0.017533643 -0.017630089 0.2219754
0.021033434 -0.017915485 0.22311907
0.0079971878 -0.012658928 0.22193752
0.012172186 -0.011661828 0.2212836
0.015389484 -0.012654519 0.2224706
0.021851556 -0.014755755 0.22400001
0.008378882 -0.0095021604 0.22354548
0.012971636 -0.0082459804 0.2226515
0.015579864 -0.0087775756 0.22346669
0.013134641 -0.0049492246 0.22400001
-0.0066897548 -0.03014433 0.22500001
0.024611793 -0.030278303 0.22600001
0.028231416 -0.03037167 0.22533335
0.031135773 -0.030734852 0.22531247
-0.010940146 -0.02744277 0.22668631
-0.0078195389 -0.026949052 0.22632787
-0.0046832105 -0.026040034 0.22500001
0.024110571 -0.025825029 0.2258182
0.027588537 -0.027358428 0.22604239
0.031460255 -0.027163366 0.22674198
-0.011444565 -0.02394375 0.22780004
-0.006421797 -0.022348534 0.22677785
-0.0026506667 -0.021908727 0.22641499
0.0012389292 -0.02157817 0.22653067
0.023837719 -0.022255242 0.2262546
0.027273225 -0.022692073 0.22823243
0.031028712 -0.0232821 0.22864713
-0.00630476 -0.019063465 0.22900005
-0.0023770924 -0.017941911 0.22815673
0.0026971551 -0.017558567 0.22719571
0.0052219536 -0.015679538 0.22580002
0.018118432 -0.015186452 0.22500001
0.023423648 -0.017889114 0.22714293
0.025174782 -0.019360751 0.22833335
0.0040815989 -0.013767954 0.22800003
0.0052936766 -0.012217673 0.22714289
0.017887328 -0.012323222 0.22596933
0.021503432 -0.012935178 0.22736669
0.0080178455 -0.0071735699 0.22580642
0.011978663 -0.0070425798 0.22548939
0.017328201 -0.0075598676 0.22663294
0.020845149 -0.00900687 0.22866668
0.0087151015 -0.0029151253 0.22666129
0.013048152 -0.0027253297 0.22692408
0.015887886 -0.0035030355 0.22766672
-0.0069573447 -0.035239153 0.23400001
0.029486282 -0.035837699 0.23316669
0.031095941 -0.035488792 0.23200002
-0.010757147 -0.032297771 0.23322225
-0.0074001858 -0.032575946 0.23321624
-0.0041394611 -0.031389493 0.232875
0.029195437 -0.033426069 0.23335715
0.032569777 -0.03310328 0.23183933
0.033839561 -0.027255284 0.23079996
-0.010929184 -0.022115944 0.23244442
-0.0094975457 -0.022286031 0.23343751
0.0286387 -0.020935692 0.23084615
0.032848742 -0.022399526 0.23139384
-0.011068936 -0.018269967 0.23296767
-0.0065794205 -0.017226694 0.23117946
-0.0028572788 -0.015688302 0.23022856
0.00075371459 -0.015719809 0.23014288
0.024442289 -0.016015464 0.23057143
0.027284438 -0.01768934 0.23230106
0.030976664 -0.018737707 0.23236002
-0.0059973453 -0.013604227 0.23381487
-0.0020881679 -0.012495151 0.23232234
0.0019498614 -0.012078087 0.23146982
0.0050954567 -0.011048729 0.23
0.023596557 -0.011571923 0.23245651
0.025940306 -0.013419043 0.23341668
-0.001214924 -0.0090069696 0.23380001
0.0034829034 -0.0079408307 0.23272339
0.0054808129 -0.0068653929 0.23160005
0.019020824 -0.0060343225 0.23232146
0.021885362 -0.0075199883 0.23276362
0.025483008 -0.0085849464 0.23400001
0.0042987624 -0.0040951511 0.23400001
0.020360846 -0.0047907531 0.23400001
-0.0054528015 -0.03595458 0.23875001
-0.0022160027 -0.037233196 0.23884615
0.024344482 -0.036841556 0.23619053
0.026984502 -0.0366625 0.2359388
-0.0058014817 -0.0344081 0.23650001
-0.0027132719 -0.033590313 0.23787038
0.024400335 -0.03365289 0.23613338
0.026864652 -0.03367395 0.23559526
-0.010190886 -0.020364851 0.23566668
-0.0093001705 -0.02036377 0.23566668
0.029211799 -0.020052856 0.23500001
-0.010431211 -0.017016869 0.23587504
-0.0092188353 -0.017550997 0.23656525
0.029310625 -0.016308466 0.23557146
0.031147558 -0.016338024 0.2357084
-0.010564758 -0.012816573 0.23752381
-0.0074530616 -0.012255207 0.23620373
-0.0040767947 -0.010706129 0.23560007
0.027947221 -0.012177437 0.23633726
0.031374559 -0.012661875 0.23812282
-0.010189137 -0.007748411 0.23860002
-0.0072332895 -0.0071678264 0.23744462
-0.0025374063 -0.0070555746 0.23627068
0.0015753348 -0.0068873852 0.23579174
0.027257903 -0.0076332241 0.23714498
0.030677836 -0.0092043523 0.23899999
-0.005408376 -0.041657552 0.24400002
-0.0035808529 -0.04098485 0.24313334
-0.0057778652 -0.036979556 0.24016666
-0.0031929344 -0.037765559 0.24048148
-0.00090936985 -0.033905115 0.24000001
-0.010248924 -0.011658825 0.24000001
-0.0095674191 -0.011484023 0.24092311
0.033414047 -0.011426326 0.24104354
-0.0094029345 -0.0092717987 0.24075001
-0.0010966351 -0.045179766 0.24740003
0.0023612317 -0.045228463 0.24766667
0.0050715795 -0.04510672 0.24700001
0.013857359 -0.045336016 0.24857144
0.017591534 -0.04566364 0.24894448
0.020051064 -0.046279434 0.24900001
-0.0056953784 -0.040768929 0.245
-0.0021494203 -0.043048918 0.24652238
0.0024060234 -0.042685088 0.24816467
0.0072374553 -0.042449191 0.24688418
0.012329938 -0.04249486 0.24757278
0.016466334 -0.043538887 0.24900007
-0.0027192151 -0.039618414 0.24650002
0.0042042276 -0.03956724 0.24900004
0.0078742756 -0.038710549 0.2484999
0.011651286 -0.038783707 0.2483824
0.021160325 -0.045396712 0.25081819
0.0014173544 -0.040384859 0.25
0.014726757 -0.040655103 0.25
0.017968861 -0.041822795 0.25073445
0.021673268 -0.042354912 0.25193751
-0.00021804465 -0.038154561 0.25080004
0.0023763885 -0.037643325 0.25059304
0.0073103067 -0.03633054 0.25032556
0.013127311 -0.037252568 0.25100005
0.017427346 -0.037679862 0.25282228
0.021159232 -0.038710531 0.25381249
-0.00031862687 -0.033927668 0.25155556
0.0026852919 -0.033376809 0.25195587
0.0072285058 -0.032874923 0.25101218
0.012087571 -0.032820858 0.25193763
0.016480872 -0.033332363 0.25395992
0.021689242 -0.034441445 0.25400001
0.011654646 -0.029934973 0.25075004
0.023716442 -0.046568282 0.257
0.019376509 -0.03598284 0.25500003
0.021414515 -0.036831111 0.25500008
0.018880347 -0.034439221 0.25500003
0.02124303 -0.034931447 0.25500003
