# .PCD v0.7 - Point Cloud Data file format
VERSION 0.7
FIELDS x y z
SIZE 4 4 4
TYPE F F F
COUNT 1 1 1
WIDTH 228
HEIGHT 1
VIEWPOINT 0 0 0 1 0 0 0
POINTS 228
DATA ascii
-0.0078306813 0.033671532 0.12773684
-0.020695895 0.028239997 0.13400005
-0.017701643 0.02809117 0.13323282
-0.013244741 0.028484236 0.13254838
-0.020182727 0.030176595 0.134
-0.017504333 0.031094793 0.1334133
-0.01406713 0.031265561 0.13332252
-0.006873976 0.034271818 0.13155001
-0.0081673646 0.037021704 0.13350001
-0.035292502 0.024525059 0.13900001
-0.032187387 0.023955351 0.13780013
-0.028293664 0.024613433 0.13896154
-0.010441584 0.024670813 0.13900001
-0.037026979 0.025964364 0.13899997
-0.032457478 0.026944743 0.1384415
-0.027909886 0.026324393 0.13895997
-0.022510683 0.027352016 0.13642588
-0.018027956 0.029329991 0.13500001
-0.011068028 0.0273277 0.13696583
-0.0080486359 0.028001711 0.1377742
-0.030749865 0.030800551 0.13900001
-0.027057448 0.030865327 0.13900001
-0.021248216 0.032355484 0.13654718
-0.017645741 0.032975744 0.13597035
-0.012466187 0.032552786 0.13663095
-0.020563897 0.036124833 0.13863637
-0.017957324 0.036766544 0.13781296
-0.013406245 0.037260912 0.1378222
-0.0081468336 0.038629964 0.13735558
-0.017874997 0.040339291 0.13900001
-0.013123441 0.040650234 0.139
-0.0088430773 0.040771399 0.13791668
-0.040321752 0.024128342 0.1415
-0.03911512 0.023772987 0.14262654
-0.032243367 0.024187695 0.14
-0.027648767 0.02458859 0.14033334
-0.010328512 0.023930196 0.14100002
-0.0079698823 0.022766639 0.14362621
-0.040316321 0.025406612 0.14025
-0.037631232 0.027544077 0.14086537
-0.032519441 0.02926001 0.14000002
-0.027416883 0.028204236 0.14045034
-0.024715334 0.028609762 0.14009999
-0.010330669 0.028079826 0.14042108
-0.0082770092 0.027014524 0.1426302
-0.037098985 0.03198282 0.14320448
-0.032346938 0.032511953 0.14109096
-0.027486617 0.032323498 0.14247702
-0.024027647 0.032698397 0.14162497
-0.011462336 0.033353269 0.14017648
-0.0072907028 0.032208554 0.14246073
-0.036486518 0.035297506 0.14400001
-0.032606926 0.036647562 0.14334942
-0.026669485 0.035881683 0.14395005
-0.022215281 0.037208993 0.1424384
-0.016985588 0.038659766 0.14068085
-0.011908823 0.038007241 0.14216349
-0.0066671721 0.038413242 0.14147727
-0.020461386 0.041626599 0.14221433
-0.017414203 0.042543102 0.14179918
-0.012537012 0.042647604 0.14199325
-0.0081207743 0.041987777 0.14278264
-0.017417816 0.046778634 0.14266096
-0.012276746 0.046139784 0.14390701
-0.0093968231 0.046629887 0.14352004
-0.037050337 0.019805532 0.149
-0.0052941483 0.019678406 0.14575002
-0.0022005744 0.018958332 0.14738943
0.0001735191 0.017627683 0.14875001
-0.037814312 0.022614073 0.14707875
-0.0059012333 0.022654476 0.14542258
-0.0031462891 0.022336774 0.14762847
-0.036879275 0.025104277 0.148
-0.016232211 0.029124523 0.14812501
-0.014842228 0.029759992 0.148
-0.005974852 0.027430048 0.14681119
-0.0044395113 0.026662214 0.14846513
-0.037942469 0.034064837 0.14531249
-0.028557455 0.034460019 0.14541177
-0.015152609 0.030070374 0.148
-0.0059156124 0.03236258 0.14716126
-0.037076909 0.037148543 0.14661075
-0.031846695 0.037972819 0.14526415
-0.027783031 0.037880972 0.14621893
-0.023736501 0.038526412 0.14593221
-0.010860349 0.037489023 0.14602499
-0.0057993904 0.037277289 0.147
-0.0049432148 0.039960377 0.149
-0.035643093 0.040286917 0.14866666
-0.032179799 0.041966904 0.14780644
-0.02749416 0.041841663 0.14806339
-0.023266844 0.042055748 0.14763829
-0.015323316 0.044578437 0.14500001
-0.010822341 0.042882618 0.14540812
-0.007421141 0.043234371 0.14694671
-0.0047452198 0.040853489 0.14771429
-0.021501904 0.045898143 0.14861111
-0.0018025598 0.014664484 0.15400003
0.00016503135 0.014646473 0.15333335
-0.036376476 0.01882864 0.15168062
-0.034869153 0.019116024 0.15350002
-0.0016023285 0.016580064 0.15334783
0.0010277308 0.01759156 0.15186006
-0.036233749 0.022127908 0.15156846
-0.034869153 0.020403685 0.15350002
-0.00081336248 0.023097321 0.15077589
0.0010368907 0.022431482 0.1523961
-0.036992084 0.025190219 0.15100001
-0.033368438 0.025637573 0.15400001
-0.015728176 0.029410664 0.15054545
-0.014413648 0.029847579 0.15000001
-0.0021833032 0.027724182 0.15119129
0.00064612273 0.026929429 0.15399991
-0.015797781 0.030350903 0.15000001
-0.014826412 0.030046564 0.15100001
-0.0051935823 0.032629814 0.15159261
-0.0033643579 0.03197467 0.15281984
-0.038035389 0.039828196 0.14999999
-0.0051800632 0.036828164 0.15155999
-0.0046353112 0.037527386 0.15274286
-0.03725886 0.042638339 0.15087475
-0.031919707 0.044287443 0.15067571
-0.027756073 0.044341434 0.15027276
-0.023891149 0.044032488 0.15051286
-0.0040665073 0.042424321 0.1529333
-0.040287901 0.01424735 0.1577
-0.039595164 0.014695017 0.15814288
-0.010396545 0.013102095 0.15864287
-0.0076083541 0.0133473 0.15698618
-0.0032111083 0.013854535 0.15586567
-0.040109698 0.015106943 0.15700001
-0.038563237 0.016707812 0.15647146
-0.034317289 0.019566977 0.15611763
-0.0066438173 0.016784668 0.15808252
-0.0039965101 0.017451994 0.15641178
-0.035413343 0.02283445 0.15581252
-0.033474706 0.022650693 0.15690002
-0.0061085988 0.020634588 0.15900001
-0.035047889 0.025316458 0.155
-0.032969769 0.025674541 0.15669446
-0.017011616 0.02926413 0.15788889
0.0012205318 0.028118597 0.15571058
-0.015845083 0.030114038 0.15800002
-0.0015043978 0.033355005 0.15604816
0.00081329729 0.031996246 0.15729231
-0.0027284778 0.037479285 0.15665759
6.0222039e-05 0.035306383 0.15900001
-0.037135847 0.009788081 0.16400002
-0.032726415 0.0097902864 0.16400003
-0.026751634 0.0097219413 0.16400002
-0.024426099 0.0091425432 0.16400002
-0.01176687 0.0091358619 0.16303131
-0.040913939 0.012184481 0.16200005
-0.038266528 0.012073939 0.16306561
-0.03202606 0.011551111 0.16399978
-0.027974566 0.011265848 0.16399983
-0.011040307 0.011529505 0.16131258
-0.0096165938 0.011740647 0.16050002
-0.038198076 0.016489919 0.16317649
-0.034068957 0.01942776 0.16075002
-0.010569694 0.016782219 0.16288002
-0.0081970245 0.018163325 0.16068687
-0.0049726032 0.019086631 0.16000001
-0.03261786 0.02196678 0.16230191
-0.0080807852 0.021102116 0.16219234
-0.032158002 0.026176592 0.16228002
-0.016298657 0.028837368 0.16284485
-0.014282355 0.029446479 0.16350001
-0.015497671 0.030189212 0.16163638
-0.01476715 0.030561473 0.16350001
0.0015822131 0.034146547 0.16100001
-0.0006119957 0.038088743 0.16053128
0.00082806824 0.03741964 0.16204619
-0.022140907 0.0084610758 0.16724727
-0.018773114 0.0070541957 0.16900006
-0.013710036 0.0077649988 0.16747504
-0.036906105 0.013375226 0.16574539
-0.032837249 0.013656791 0.16560873
-0.027059888 0.013443434 0.16567537
-0.023349967 0.012373564 0.16665392
-0.036545679 0.0168726 0.1656962
-0.03233958 0.017487606 0.16674876
-0.027401865 0.017451769 0.16811123
-0.023824755 0.016755477 0.16867128
-0.011096437 0.018633043 0.16627276
-0.032078732 0.021430653 0.16726863
-0.028413756 0.020390628 0.16899997
-0.010829103 0.021832947 0.16728264
-0.0096393889 0.021711925 0.16522223
-0.031794682 0.027136996 0.16706061
-0.022511641 0.028779602 0.1678817
-0.017607702 0.028149409 0.16697297
-0.014325624 0.027891129 0.16709089
-0.02233983 0.031029351 0.16785713
-0.019607678 0.030453077 0.1665
-0.014470883 0.030064072 0.16500001
-0.017048508 0.0049492382 0.17
-0.02104944 0.0094849486 0.17000002
-0.017067267 0.0079315053 0.17029782
-0.01475271 0.0085877646 0.17025
-0.021126429 0.012711414 0.17117862
-0.017811082 0.012165206 0.17216234
-0.013935016 0.012566335 0.17219995
-0.025515825 0.019833894 0.17
-0.021857791 0.017668465 0.17219532
-0.019096835 0.016227124 0.1738437
-0.013121213 0.016312687 0.17328575
-0.031303313 0.023206351 0.1706351
-0.027339404 0.022775248 0.17117371
-0.022984341 0.022565026 0.17274086
-0.017244579 0.024504254 0.17351277
-0.01347115 0.023853282 0.1735535
-0.03111632 0.026839456 0.170783
-0.027558545 0.027472114 0.17121598
-0.022306019 0.026635623 0.17140779
-0.017777963 0.026364258 0.17132668
-0.013710693 0.026051445 0.17116667
-0.026894856 0.0309275 0.17204165
-0.021790573 0.031574696 0.17021428
-0.016494 0.013996627 0.17560613
-0.014687297 0.014343319 0.17500001
-0.020588269 0.019298522 0.17542858
-0.017104721 0.017615966 0.17634234
-0.014121439 0.017757563 0.17629416
-0.020665281 0.022544771 0.17595357
-0.017579157 0.022128014 0.17669773
-0.014044192 0.021624804 0.17666671
-0.020614527 0.025511941 0.17610002
