# .PCD v0.7 - Point Cloud Data file format
VERSION 0.7
FIELDS x y z
SIZE 4 4 4
TYPE F F F
COUNT 1 1 1
WIDTH 210
HEIGHT 1
VIEWPOINT 0 0 0 1 0 0 0
POINTS 210
DATA ascii
-0.04114097 0.028700534 0.13272125
-0.037290342 0.028792128 0.13279502
-0.034247812 0.028272677 0.13399999
-0.040687088 0.031370495 0.13326469
-0.037505295 0.031243175 0.13344881
-0.034733344 0.031409964 0.13400002
-0.044402078 0.024743691 0.13900001
-0.027836941 0.024485249 0.13870728
-0.022611978 0.024707247 0.13900003
-0.017246436 0.024525059 0.13899998
-0.042642683 0.026950527 0.13733599
-0.035184253 0.027672205 0.13550001
-0.031750027 0.027854487 0.13649152
-0.02826323 0.0270952 0.13842694
-0.021649398 0.026055481 0.13899997
-0.017821454 0.025939453 0.13899995
-0.04098966 0.033217415 0.1350909
-0.037578285 0.033694472 0.13570163
-0.032806382 0.03217813 0.13715385
-0.027514236 0.031097803 0.13786048
-0.040540207 0.038055494 0.13834783
-0.037604328 0.037300084 0.13775744
-0.033928748 0.037120316 0.13808627
-0.026532739 0.039785426 0.13900001
-0.040175237 0.040339291 0.13900001
-0.038913682 0.040485084 0.13883337
-0.033722978 0.040968578 0.13866667
-0.026843349 0.041431095 0.13895001
-0.027640462 0.045149144 0.13900001
-0.045811374 0.023865366 0.14317858
-0.0444948 0.024451284 0.14175864
-0.030443283 0.024862859 0.14050001
-0.026469838 0.02457745 0.14007142
-0.023215059 0.024848305 0.14
-0.015912032 0.023379127 0.14329632
-0.014686568 0.02350726 0.14345458
-0.046122815 0.025793931 0.14266667
-0.043055408 0.026289344 0.14140002
-0.030677482 0.028347081 0.14000002
-0.02667401 0.028016236 0.14050336
-0.022952098 0.028125251 0.1412483
-0.017266959 0.02817318 0.1409945
-0.01466856 0.027585359 0.14321746
-0.031088475 0.033725634 0.14018029
-0.027589755 0.032642063 0.14181443
-0.021473376 0.031878337 0.14272042
-0.017853567 0.032328296 0.14293958
-0.014743079 0.030616626 0.14400001
-0.041345075 0.038574275 0.14
-0.03713676 0.039830249 0.14
-0.031722225 0.037553459 0.14129156
-0.027311269 0.03741568 0.14310612
-0.02029115 0.035494149 0.14357144
-0.019163096 0.035603292 0.14393337
-0.040443167 0.042812116 0.14219999
-0.037409201 0.042782973 0.14169508
-0.032704879 0.042293351 0.14219889
-0.02631609 0.042537369 0.14175758
-0.024857115 0.04155191 0.14283335
-0.040110424 0.045716241 0.14400001
-0.037650414 0.046216827 0.14348651
-0.033239074 0.046678104 0.14226758
-0.027375882 0.046527915 0.14323689
-0.053221077 0.019961771 0.149
-0.01772555 0.019719958 0.14875001
-0.0553362 0.020955911 0.14866666
-0.052102029 0.022331793 0.14664578
-0.047976721 0.022961663 0.14625001
-0.044734143 0.024319375 0.14542858
-0.016956214 0.021484457 0.146631
-0.014185926 0.022977598 0.14559521
-0.052152205 0.0271709 0.14833599
-0.048834179 0.026879732 0.14793333
-0.044342134 0.025203586 0.14500001
-0.014146672 0.027326893 0.14648932
-0.052154753 0.030748265 0.14827274
-0.025726836 0.032981139 0.1462
-0.023372034 0.033158537 0.14611965
-0.015952814 0.033535372 0.14555098
-0.014112587 0.03258219 0.14718477
-0.027279986 0.037586961 0.14591403
-0.022681188 0.036888551 0.14747868
-0.017308589 0.037601281 0.14638808
-0.014416943 0.03632737 0.14874287
-0.03114038 0.043465935 0.1457693
-0.028374022 0.042030618 0.14622451
-0.024170173 0.042028639 0.14792188
-0.017830558 0.041406017 0.14845301
-0.03178335 0.047496311 0.14621215
-0.055857118 0.018781964 0.15172882
-0.054153539 0.018162355 0.15328579
-0.020137839 0.017593116 0.15285715
-0.018696398 0.018459199 0.15165278
-0.055841584 0.020375034 0.15046154
-0.052886646 0.020942206 0.15200002
-0.047223583 0.023353506 0.15216668
-0.018598028 0.021466691 0.15137501
-0.051036157 0.028407773 0.15056004
-0.047572043 0.02757032 0.15153846
-0.042821746 0.027761387 0.15167855
-0.051605504 0.032556508 0.15217525
-0.049287919 0.032585353 0.15208887
-0.041674454 0.030233797 0.15075001
-0.052393567 0.035785913 0.15373082
-0.048838411 0.035294201 0.15400003
-0.025109207 0.038498402 0.15000001
-0.02354482 0.038940974 0.15062504
-0.0150428 0.039442126 0.15000001
-0.013973662 0.038298 0.15065914
-0.022738708 0.042454474 0.15128109
-0.016916845 0.043691169 0.15042333
-0.014103831 0.042565875 0.15260005
-0.047929689 0.014457551 0.15842423
-0.01800843 0.014194139 0.15817647
-0.051825047 0.017648086 0.15630825
-0.048887569 0.01668497 0.15824492
-0.020321438 0.016232137 0.15675001
-0.018575607 0.016383491 0.15671211
-0.05185682 0.021192327 0.15703373
-0.047887594 0.023516733 0.15730512
-0.01942024 0.024771728 0.15566668
-0.046525024 0.026489304 0.15708826
-0.042653706 0.028200669 0.15711114
-0.019516945 0.025734853 0.15557143
-0.042016279 0.03083753 0.15767568
-0.05217563 0.03795689 0.15730412
-0.048946682 0.038063951 0.15634787
-0.051806733 0.040945213 0.15802564
-0.030819682 0.0094629452 0.16400002
-0.027335569 0.0090529695 0.16399981
-0.02307711 0.0088970149 0.16399987
-0.046387594 0.012958448 0.16232309
-0.044000849 0.01351869 0.16368185
-0.031320386 0.011335289 0.16399999
-0.027832601 0.010934596 0.1639999
-0.02388831 0.010715266 0.16400003
-0.01699038 0.012825045 0.16261533
-0.047220059 0.017911231 0.16115125
-0.043660641 0.016621031 0.16287808
-0.017386006 0.016778534 0.16228209
-0.050583024 0.020980077 0.16000001
-0.04787232 0.02209154 0.16167474
-0.043260153 0.023046624 0.16247827
-0.046604551 0.02653861 0.1624082
-0.042885758 0.027325172 0.16161285
-0.038458671 0.029881867 0.164
-0.041173227 0.030881952 0.16282357
-0.039762445 0.031067014 0.163
-0.051203515 0.038883913 0.16000001
-0.045481671 0.0085524349 0.1675334
-0.044375107 0.0081004184 0.16828211
-0.037631638 0.0084368112 0.16803224
-0.033158701 0.0090037901 0.16576917
-0.020714516 0.0093472358 0.16499999
-0.018141622 0.0094845826 0.16509299
-0.045727938 0.012210255 0.16589652
-0.044207685 0.012355457 0.16674073
-0.035864759 0.011731498 0.16828266
-0.032545891 0.012884206 0.16603817
-0.027356436 0.013247031 0.16587505
-0.022307308 0.012705744 0.16629001
-0.018274335 0.011605593 0.16539998
-0.045995262 0.017446898 0.16642423
-0.043662589 0.018072367 0.16661815
-0.03124213 0.017477959 0.16770837
-0.027848313 0.016508074 0.1677213
-0.023190916 0.01627334 0.16781251
-0.016893111 0.016049743 0.16500001
-0.046069477 0.022506401 0.16633722
-0.043568145 0.02234287 0.1665294
-0.031060642 0.020675775 0.16899997
-0.022973387 0.020869095 0.16900001
-0.046536591 0.02618851 0.16500001
-0.041765489 0.027885327 0.16693403
-0.037958041 0.028183447 0.16779611
-0.032198098 0.027578063 0.16825002
-0.027564833 0.02802375 0.16763893
-0.023183888 0.02729976 0.16726151
-0.040695637 0.030495172 0.16546154
-0.03967024 0.030514527 0.16557144
-0.042385723 0.0080215391 0.17082264
-0.038305927 0.00891551 0.17000003
-0.042764612 0.01236242 0.17280132
-0.037977934 0.012838067 0.17060004
-0.03458922 0.014468289 0.16999999
-0.043804169 0.017043754 0.17257403
-0.037247352 0.017276606 0.17287301
-0.034078907 0.01769837 0.1713167
-0.027017655 0.018853657 0.17032914
-0.024208205 0.018977273 0.17009094
-0.043155517 0.022893896 0.17192645
-0.037191771 0.023492688 0.17322852
-0.032268066 0.022598706 0.17174552
-0.027500963 0.022506049 0.17150782
-0.024055284 0.02273603 0.17158459
-0.041527923 0.026426759 0.17131749
-0.037420191 0.026240587 0.17166662
-0.03243082 0.026276698 0.1711456
-0.027423849 0.026749134 0.17134067
-0.023622448 0.026092198 0.17163888
-0.041660283 0.014444342 0.17509091
-0.042118985 0.017552888 0.17628147
-0.038671099 0.0188784 0.17518751
-0.042031698 0.022230728 0.1776429
-0.037675265 0.02264419 0.17622958
-0.034349654 0.024089223 0.17539135
-0.041739706 0.025687603 0.17692
-0.037316322 0.025572352 0.17533332
-0.034065139 0.025280057 0.17500001
-0.01834104 0.02308248 0.1886539
