# .PCD v0.7 - Point Cloud Data file format
VERSION 0.7
FIELDS x y z
SIZE 4 4 4
TYPE F F F
COUNT 1 1 1
WIDTH 214
HEIGHT 1
VIEWPOINT 0 0 0 1 0 0 0
POINTS 214
DATA ascii
0.00820537 0.019079676 0.14900002
0.012669068 0.018262587 0.1480794
0.015251509 0.01819988 0.14891669
0.012372267 0.021157609 0.14863044
0.0047691679 0.014776802 0.15350002
0.0056273225 0.014741309 0.153125
0.0047379583 0.016642565 0.15290003
0.0074066478 0.017535007 0.15101448
0.011870904 0.018370226 0.15010348
0.016726576 0.017761305 0.15251762
0.0079131993 0.022159461 0.15205909
0.012555364 0.022668926 0.15144722
0.016350841 0.020618498 0.15364519
0.0090016751 0.02692976 0.15329781
0.013350539 0.026750829 0.15331258
0.024491107 0.0098930821 0.15900001
0.026439007 0.0098930821 0.15900002
-0.010571155 0.01393394 0.15866666
-0.0075662881 0.013259244 0.15803929
-0.0025698869 0.013578057 0.15785919
0.0020689492 0.013659476 0.15702467
0.0055593974 0.014355402 0.15539999
0.018785343 0.013541923 0.15607253
0.022510929 0.012740856 0.1576892
0.026030492 0.011254993 0.15899995
-0.0080404542 0.01697618 0.15850954
-0.0019688003 0.016975747 0.1584001
0.0024054756 0.017118685 0.15743825
0.0067971833 0.015436472 0.15575001
0.018772179 0.017135389 0.15554637
0.021157568 0.016768839 0.15718751
-0.0086177411 0.020879343 0.15869233
0.0044620149 0.021430247 0.15756251
0.0057902159 0.023939613 0.15604761
0.013757544 0.023873046 0.155
0.017332591 0.022862177 0.1563828
0.020350918 0.023356546 0.15800001
0.0074991677 0.027521821 0.15615529
0.012024191 0.028050246 0.15596151
0.016717523 0.027158648 0.15783349
0.020514183 0.027247386 0.15863635
0.0087440405 0.031623285 0.15732349
0.01238364 0.031976875 0.15746368
0.015559106 0.031691223 0.15795651
0.0097626839 0.036446277 0.15846668
0.010415229 0.037001856 0.15847825
-0.010707388 0.0094390102 0.16305557
-0.0091678342 0.009567799 0.16342111
0.023780363 0.0099553028 0.16000001
0.028354112 0.0094805351 0.16065851
0.031754088 0.0084126275 0.16213517
-0.011376872 0.011673513 0.16126035
-0.0080337385 0.010955351 0.16174076
-0.0025035073 0.012183032 0.1603
0.024818091 0.014754795 0.16000001
0.027925566 0.012927882 0.16102608
0.031058837 0.012358398 0.16213927
-0.011372423 0.017316669 0.1632895
-0.0065658554 0.018590005 0.1608649
-0.0032889005 0.018300954 0.16076832
0.0013615735 0.018218074 0.16066669
0.02340984 0.017930236 0.16123474
0.027031442 0.016893573 0.16253076
0.030708864 0.01605192 0.16362503
-0.010200202 0.021070337 0.16266666
-0.0070314053 0.022651382 0.16266449
-0.002576133 0.022330619 0.16219042
0.0018032738 0.022401024 0.16192484
0.019543514 0.022942565 0.16011541
0.02204936 0.022125099 0.16249558
0.025869509 0.020407416 0.1638182
-0.0069422699 0.025443193 0.16389477
-0.0018268516 0.025964284 0.16315006
0.0030481347 0.026946859 0.16311766
0.00536852 0.028600911 0.16125001
0.018923711 0.027984658 0.1610857
0.021149689 0.027924456 0.16086957
0.0044975155 0.0302145 0.164
0.0073681669 0.03319069 0.16126002
0.01279714 0.033810541 0.16040544
0.017220799 0.032072477 0.16152813
0.021543179 0.031034967 0.16282763
0.0083180629 0.03716775 0.16184212
0.012683962 0.037541792 0.16193788
0.015697511 0.037254144 0.16197965
0.02850664 0.0042130435 0.16847506
0.03121479 0.0047756745 0.16744445
-0.010256605 0.0083936313 0.16500001
-0.0074152844 0.0079563987 0.1671533
0.028610621 0.0072056213 0.16829407
0.031823583 0.0068384311 0.16541666
-0.0067994329 0.011136279 0.16775006
-0.0040656617 0.012433464 0.16900001
0.032960322 0.012977351 0.16578943
-0.011532563 0.019280421 0.16500001
0.028401252 0.018626565 0.1652586
0.031380385 0.017889882 0.1662941
-0.01117842 0.022884969 0.16693105
-0.0097215269 0.024981065 0.16500001
-0.002776654 0.024345657 0.16499999
0.0019344758 0.023653984 0.16527778
0.024098331 0.023248328 0.16535293
0.027574768 0.022586985 0.16674449
0.030793404 0.021723211 0.16781822
-0.010935862 0.025860691 0.16900001
-0.0071249027 0.0278608 0.16694279
-0.0028084144 0.027760038 0.16599207
0.0017909706 0.027821837 0.16586171
0.023625191 0.027447259 0.16715841
0.026829835 0.026629498 0.16863951
0.030050458 0.02531264 0.16900001
-0.0068574445 0.031811226 0.16894175
-0.0028122242 0.031850651 0.16831946
0.0023820046 0.032259356 0.16778561
0.0054105455 0.033428606 0.16604348
0.018851304 0.033610873 0.16597867
0.022032937 0.032103524 0.16762498
-0.0056812228 0.0036404307 0.1733235
-0.0038498545 0.0040478539 0.17366669
0.023898328 0.0032802867 0.17215
0.026244797 0.0033763293 0.17081034
0.030503919 0.0042376397 0.17
-0.0056086276 0.0074245632 0.17210253
-0.0031015116 0.0068232017 0.17383336
0.024296038 0.0069701509 0.17265952
0.026266061 0.0074820477 0.1714896
-0.0055678147 0.010908331 0.17175001
-0.0036250898 0.011668539 0.17302856
0.024110748 0.010199625 0.17200001
0.032680307 0.01886134 0.17075001
0.03237474 0.023138108 0.17140001
-0.010898145 0.027825622 0.17085716
-0.0097404718 0.028825307 0.17
-0.0024013834 0.029459292 0.16999999
0.028208036 0.028465053 0.17043748
0.031087611 0.027550971 0.1722419
-0.010580711 0.031893723 0.17299999
-0.0067543499 -0.00029017893 0.1785
-0.004306233 -0.000181847 0.17900001
0.023767857 -0.00080824475 0.17733334
-0.0060168589 0.0012680766 0.17674291
-0.0038184742 0.0023351905 0.17611998
0.023488488 0.0014100802 0.1769143
0.025615755 0.0018202452 0.1762
-0.0051890016 0.0078985896 0.17533332
-0.0034924233 0.0074241208 0.17628209
0.023384947 0.0080250939 0.17631432
-0.0052031423 0.010037351 0.17500001
-0.0034532011 0.010709743 0.17650001
0.023113504 0.010550387 0.17754547
0.011020142 0.018789003 0.17842858
0.033152342 0.02766851 0.17728207
0.015413544 -0.0052588219 0.18400002
-0.0060420968 -0.001787334 0.18152468
-0.0024926991 -0.0023092506 0.18302862
0.0026720832 -0.0021631257 0.18285215
0.007864994 -0.0019640618 0.18157129
0.012447644 -0.0027317037 0.18271896
0.01522175 -0.0037031572 0.18400003
0.023132529 -0.0023224133 0.18215387
-0.0024682998 0.0025914768 0.18267502
0.0034052604 0.00092262519 0.18342555
0.0077309492 0.0013725581 0.18314287
0.010965777 0.0015858351 0.18379244
0.02227552 0.00026059363 0.18400002
-0.0019041114 0.0074301544 0.18185002
-0.0021411041 0.011241359 0.18113045
0.016308585 0.01458124 0.18400002
0.022666855 0.010178202 0.18000001
0.0098795528 0.01918596 0.18100001
0.012495108 0.017739261 0.18231948
0.015338958 0.015998386 0.18400002
0.01807715 -0.0055697714 0.18573681
0.02119671 -0.0057444959 0.18499997
-0.00010103606 -0.00063789473 0.185
0.00058198551 -0.00081640267 0.18536362
0.013441082 -0.0011430713 0.18532142
0.017739516 -0.0025383816 0.18634674
0.021478796 -0.0031057284 0.18569054
-0.00093828101 0.0022770301 0.18570246
0.0022964706 0.003135239 0.18639214
0.0072257458 0.0039902856 0.1857183
0.01308194 0.0028578162 0.18607529
0.017037511 0.0016686732 0.18795137
0.021018399 0.0013893503 0.18823536
-0.00092384219 0.0071344525 0.18770275
0.0031803241 0.0071246331 0.1881111
0.0074614882 0.0075114071 0.18748686
0.011883709 0.0074935379 0.18765758
0.015657274 0.0054117246 0.18900003
0.021655019 0.0062435283 0.18900001
-0.001345787 0.012392052 0.18815386
0.0035336558 0.014228896 0.18803853
0.0082037039 0.012491842 0.18894224
0.012025107 0.012917167 0.18848094
0.015899215 0.013557697 0.18809381
0.0035794743 0.016096665 0.18845002
0.0078439238 0.016721731 0.18790825
0.012369216 0.015976071 0.18529513
0.01534733 0.015635382 0.185
0.018318571 0.0034776558 0.19270374
0.020889049 0.0036302097 0.19071431
-0.00023579915 0.0085211135 0.19000004
0.0011352326 0.0083795143 0.19000001
0.01424601 0.0076635522 0.19010639
0.017690821 0.0076150703 0.19276099
0.020822054 0.0075874152 0.19352394
-0.00084995182 0.011766463 0.19050002
0.0024785495 0.01218849 0.19037591
0.0061595305 0.012363274 0.1902115
0.013783794 0.011604457 0.18999998
0.017601505 0.011534897 0.19181009
0.020921575 0.011259507 0.19296549
0.0023608373 0.016828148 0.19000001
