# .PCD v0.7 - Point Cloud Data file format
VERSION 0.7
FIELDS x y z
SIZE 4 4 4
TYPE F F F
COUNT 1 1 1
WIDTH 149
HEIGHT 1
VIEWPOINT 0 0 0 1 0 0 0
POINTS 149
DATA ascii
0.062401325 0.02498298 0.12800001
0.063060842 0.027662914 0.12694417
0.065705806 0.027747527 0.12561814
0.063511357 0.031533163 0.12831253
0.065438658 0.031536665 0.12853332
0.059530273 0.023974916 0.13400002
0.061153371 0.024007771 0.13272822
0.059392087 0.025800988 0.13400003
0.061341174 0.027280558 0.13213092
0.062321693 0.032476183 0.13265803
0.066868231 0.03322842 0.13101079
0.070014544 0.032859769 0.133
0.064035803 0.036657121 0.13239703
0.065994829 0.036623675 0.13183932
0.067619838 0.041411538 0.13400002
0.054653324 0.022061801 0.13868886
0.057460751 0.022676183 0.13769536
0.060712527 0.022470193 0.1355263
0.058628689 0.027273003 0.13789232
0.060497601 0.028404018 0.13566668
0.059481274 0.031637814 0.13657144
0.060895756 0.032944318 0.13638142
0.062224746 0.037664402 0.13671547
0.06614247 0.038227525 0.13680001
0.072035342 0.038886078 0.13883331
0.062945448 0.042197015 0.13786063
0.067639649 0.041724354 0.13716421
0.070593655 0.040815808 0.13700002
0.064184353 0.045883026 0.13899998
0.065239668 0.046005655 0.13900001
0.049357317 0.019445289 0.14163637
0.052157372 0.019492976 0.14137092
0.055208907 0.019483849 0.14075001
0.049339131 0.021991128 0.14191952
0.05253173 0.022514295 0.14165483
0.055525105 0.02267261 0.14022222
0.048544329 0.026580274 0.14300001
0.052778315 0.026879696 0.14307177
0.056443844 0.027840076 0.14171042
0.060230672 0.029670835 0.14000002
0.054657802 0.031174561 0.14400001
0.058166414 0.032202408 0.14167407
0.060434364 0.032687042 0.14061219
0.059220877 0.037106857 0.14232503
0.060711063 0.037978243 0.14198703
0.06589061 0.038289379 0.14
0.07418102 0.037473466 0.1410345
0.075345054 0.039769035 0.14300001
0.059561051 0.041641608 0.14344832
0.061231639 0.042866088 0.14222281
0.068503581 0.043587819 0.14305265
0.071606092 0.042082995 0.14253847
0.075409137 0.041370571 0.14378574
0.054145157 0.014551716 0.14890002
0.05709061 0.013964742 0.14900002
0.049158134 0.018499373 0.14598072
0.052195702 0.017029293 0.14727938
0.055112347 0.015728081 0.14900002
0.048470136 0.022965591 0.14579758
0.048673883 0.027377157 0.14588065
0.052279219 0.028547863 0.14581713
0.049061827 0.032426339 0.1473714
0.052897014 0.032353956 0.14659733
0.056430321 0.033227406 0.14610671
0.049566615 0.035423644 0.149
0.053621512 0.035484679 0.14804165
0.058134925 0.037273277 0.14733338
0.059394024 0.042415176 0.14704411
0.060128048 0.044547081 0.14533333
0.068991221 0.044382162 0.14522223
0.07045389 0.044758748 0.14500001
0.058066607 0.013244607 0.15306675
0.060272753 0.012079012 0.15400003
0.05435225 0.018226031 0.15037504
0.057502352 0.017551877 0.15271719
0.056918815 0.020188674 0.15226668
0.077639811 0.028625086 0.15386368
0.048708003 0.033913076 0.15045455
0.051600136 0.032727268 0.1502759
0.049389079 0.037133355 0.15258178
0.052575178 0.037914775 0.15215684
0.05660839 0.038437702 0.15089476
0.058153763 0.0099151768 0.15800002
0.072854489 0.0084812585 0.15866992
0.077599026 0.0080984468 0.15879013
0.081842355 0.0082962308 0.15862848
0.05844583 0.011233187 0.1551667
0.062038671 0.012800615 0.15766668
0.074467301 0.010643076 0.15900004
0.077084459 0.01075245 0.15900002
0.083795354 0.010924324 0.15900004
0.059110444 0.017748935 0.15516664
0.060709447 0.019011995 0.157125
0.059863057 0.020330161 0.156
0.060501359 0.020587765 0.15700001
0.069528751 0.024572233 0.1568889
0.070840716 0.024506014 0.15791669
0.081574664 0.024846092 0.15900001
0.069854431 0.025136137 0.156
0.072154924 0.025789954 0.15846156
0.078076512 0.027406361 0.15717824
0.08130461 0.026476815 0.15787658
0.049119059 0.037918251 0.15530001
0.063331828 0.0048858295 0.164
0.059186123 0.0085551962 0.16035138
0.062715277 0.0073825461 0.16352366
0.06746915 0.0080961781 0.16198975
0.07158763 0.0088899732 0.15999994
0.078107342 0.0097631309 0.16000003
0.080959179 0.0097650522 0.16000001
0.059841417 0.010474167 0.16000001
0.062545933 0.010774281 0.16310005
0.068573438 0.012240823 0.16299209
0.072395198 0.012703941 0.16157191
0.077582195 0.01265909 0.16116473
0.082435347 0.012743392 0.1614444
0.085174292 0.014580767 0.16180001
0.069846816 0.015256623 0.164
0.07253211 0.016694862 0.16348746
0.077312067 0.017071892 0.16344362
0.082528621 0.015655726 0.16377421
0.085701674 0.016324811 0.16351616
0.068320386 0.023956859 0.16285715
0.072039053 0.024506787 0.1622609
0.07665021 0.024128033 0.16339028
0.083575882 0.02409876 0.16196834
0.085386075 0.022194428 0.16305885
0.069156624 0.025206856 0.163
0.074505948 0.025617538 0.16169234
0.077689648 0.025927885 0.16145831
0.081402428 0.025422003 0.16217147
0.06460423 0.0093467394 0.16499999
0.066259623 0.0098772589 0.16500001
0.064674973 0.010924965 0.16500001
0.06651748 0.012562833 0.16513981
0.08231198 0.014547034 0.16500001
0.068066619 0.017275643 0.16662186
0.07173562 0.018477572 0.16549399
0.077346131 0.01879295 0.16557774
0.082594819 0.017982703 0.16591936
0.086517528 0.018589756 0.16705264
0.068248436 0.022213263 0.16784737
0.072446316 0.022260092 0.16585301
0.077323265 0.022323648 0.16550283
0.082626902 0.02222834 0.16628514
0.085725918 0.021039199 0.16557139
0.082579523 0.025248604 0.16500001
0.067526691 0.01955325 0.17
0.067835644 0.020519156 0.17000003
