# .PCD v0.7 - Point Cloud Data file format
VERSION 0.7
FIELDS x y z
SIZE 4 4 4
TYPE F F F
COUNT 1 1 1
WIDTH 205
HEIGHT 1
VIEWPOINT 0 0 0 1 0 0 0
POINTS 205
DATA ascii
-0.0064227018 0.01427362 0.15323335
-0.0038494472 0.014454669 0.15340005
-0.0062562022 0.016408442 0.15341774
-0.0039778193 0.016502609 0.15330157
-0.00051563891 0.029509438 0.15388891
5.8328264e-05 0.028705731 0.15400001
-0.012409807 0.013522636 0.1583456
-0.0089304876 0.014104018 0.15563419
-0.001449461 0.0136056 0.15745592
0.00046817501 0.014469786 0.15807693
-0.01090157 0.016320338 0.15757692
-0.0080740461 0.018024966 0.15620007
-0.0024329508 0.017612584 0.15639287
0.00062254735 0.017122427 0.1580652
-0.0070701395 0.021823341 0.15789291
-0.0037414967 0.02219777 0.15771285
6.0222039e-05 0.020301137 0.15900001
-0.0055667427 0.025594655 0.15900002
-0.00096748793 0.027848043 0.15566666
0.00089491438 0.029013403 0.15646668
-0.00061869458 0.031838626 0.1566875
0.00081794034 0.031074258 0.1576857
-0.029209619 0.0092921313 0.16290911
-0.020977091 0.0098003391 0.16180001
-0.019983377 0.0098124528 0.162
0.0018391532 0.0090854224 0.16322647
-0.027564015 0.012444333 0.16170199
-0.022710225 0.012343447 0.16150236
-0.017478518 0.012625723 0.1609295
-0.013903026 0.012309702 0.16020004
-0.00059595541 0.011881777 0.1607895
0.0013850192 0.012150344 0.16152167
-0.027966497 0.016878894 0.16293974
-0.023351377 0.017061586 0.16293636
-0.016858209 0.017086929 0.16293028
-0.012796151 0.017580552 0.16078877
-0.0010856182 0.018475844 0.16080002
0.0015926616 0.01750008 0.16205558
-0.028449843 0.02256236 0.16361293
-0.023919202 0.021191048 0.16392002
-0.016287226 0.020654611 0.16382354
-0.012243278 0.021973338 0.16240446
-0.0079569211 0.023427175 0.16063747
-0.0018405279 0.022830026 0.16208473
0.0012026954 0.02152832 0.16275762
-0.028293464 0.02571642 0.16400002
-0.01255795 0.025758894 0.16375001
-0.0071674893 0.027517002 0.16198015
-0.0030185836 0.027001347 0.16236149
0.0014390649 0.028230621 0.16310531
-0.0066925194 0.03133516 0.16346753
-0.0038275952 0.031791203 0.16313732
0.0026298326 0.031291578 0.16269568
-0.027924541 0.0084242662 0.1676944
0.0041172169 0.0083495369 0.16612241
0.0078146737 0.0078708455 0.16689438
0.010435231 0.0073415348 0.16826086
-0.027112694 0.010254839 0.16700003
-0.022150313 0.014467934 0.1655
0.0038881982 0.012584021 0.16669413
0.007527167 0.011778712 0.16833571
0.010342232 0.010945291 0.16900001
-0.027268652 0.01809925 0.16654742
-0.021660704 0.017865419 0.16672453
-0.018830299 0.018435342 0.16559644
0.0032957336 0.017296135 0.16668895
0.0050259102 0.01519835 0.16900001
-0.027250487 0.022112299 0.16692598
-0.022649424 0.022446904 0.16638535
-0.017245281 0.02227921 0.16670084
-0.01321068 0.023676779 0.16556516
-0.0099724568 0.024873581 0.16500001
-0.00072196091 0.023187375 0.16506664
0.0027323836 0.022632619 0.16674075
-0.027794693 0.027559888 0.1670986
-0.023356821 0.026764046 0.16759707
-0.015811779 0.026668917 0.1678108
-0.012299701 0.027439918 0.16677272
-0.0096159428 0.028871434 0.16700001
-0.0017873567 0.028257925 0.16567305
0.0026111519 0.027904417 0.16750002
-0.027840693 0.031295758 0.16874997
-0.022973387 0.030349873 0.16900001
-0.011631479 0.032161295 0.16797364
-0.0076932781 0.033113945 0.1663059
-0.0026276379 0.032652233 0.16561905
0.0038249858 0.031155555 0.16655999
-0.026376681 0.0046480638 0.17209093
0.0096059348 0.0025387492 0.17367738
0.011704069 0.0034224715 0.17229711
-0.02623068 0.0075523355 0.17144442
-0.024268685 0.0097631281 0.17320001
0.0091357771 0.0050365771 0.17300001
0.0123394 0.0074889641 0.17165385
-0.024282979 0.010057447 0.17200001
0.0073642475 0.014224807 0.1700715
0.011413271 0.012456423 0.17197406
0.0044353553 0.019033892 0.17038462
0.0074913404 0.017434496 0.17190753
0.010995037 0.016517984 0.17319559
-0.026626116 0.023054352 0.17069231
-0.021172041 0.023095369 0.17108059
-0.01880203 0.02401885 0.17012003
0.0044254819 0.022442482 0.17171796
0.0063872724 0.021746298 0.17398636
-0.02645391 0.027598901 0.17124999
-0.021602705 0.027728828 0.17143805
-0.018209202 0.027661562 0.17137814
-0.014552875 0.029727288 0.17
0.0034711435 0.027595177 0.17131038
0.0052118665 0.02796975 0.17350002
-0.027442602 0.032502104 0.17207409
-0.022345513 0.03182441 0.17238368
-0.017253162 0.031690843 0.17344937
-0.014000456 0.032712195 0.17074077
0.0046380986 0.031137589 0.17066666
-0.027282273 -0.0005805252 0.17900001
0.0035648593 -0.00050528056 0.17816664
0.0065300833 -0.00040303217 0.17763998
-0.026246153 0.0026274561 0.1777193
-0.023211326 0.00340892 0.17746438
0.0034282361 0.001652034 0.17862497
0.0072179651 0.0025699658 0.17585905
-0.025274795 0.0069804955 0.17590006
-0.023346707 0.0068592522 0.17781921
0.004804349 0.0065626977 0.17833334
0.0067629064 0.0056754411 0.17661768
0.013461945 0.009682361 0.17500001
0.012903316 0.013278759 0.17548002
0.01228334 0.018348252 0.17670968
0.0082132006 0.022746539 0.1755417
0.011198269 0.022156816 0.17705634
0.0039198287 0.029500609 0.17500001
0.0073576928 0.027224232 0.17770083
0.010876913 0.026343683 0.17899995
-0.011863959 -0.0057101334 0.18357144
0.0019990858 -0.0050619137 0.18400002
-0.026709631 -0.0014834104 0.18265082
0.0017616951 -0.0023389261 0.1825466
-0.025831528 0.00099849002 0.18108335
-0.022803489 0.0023096276 0.18142308
0.0027640294 0.0035096521 0.18032074
0.0053530401 0.0046741338 0.18000001
-0.021612722 0.0078246845 0.18086116
0.0036058391 0.0062180292 0.18137147
0.0053530401 0.0054291151 0.18000001
-0.021757726 0.010204121 0.18100001
0.012827654 0.023802536 0.1818182
-0.0255468 -0.0051306896 0.18650001
-0.023248684 -0.0051410059 0.18687503
-0.016702704 -0.0052562463 0.18600003
-0.012276932 -0.0054208962 0.18639287
-0.0080261081 -0.006896582 0.18867654
0.00098260725 -0.0062036812 0.18717648
-0.026222434 -0.0034428425 0.18529998
-0.02255981 -0.0023722388 0.18666296
-0.017507257 -0.0024244182 0.18669906
-0.012679618 -0.0024451604 0.18685086
-0.0089727398 -0.00422657 0.18900007
-0.00032134331 -0.0047522741 0.18700001
0.00026412087 -0.0040583573 0.18516669
-0.02123462 0.0018480498 0.18815254
-0.01744147 0.0010255005 0.18886283
-0.012773907 0.0008957347 0.18886495
0.0016665651 0.0045721787 0.18522221
-0.021094298 0.0057402072 0.18900001
0.0018666673 0.0062200995 0.18529165
-0.0072780689 0.014569293 0.18790911
-0.0037300331 0.014117882 0.18685003
-0.0060924557 0.015548287 0.18677278
-0.0044804066 0.015296909 0.18600002
-0.0033324109 -0.010061198 0.19100001
-0.0058563328 -0.0069179581 0.1902653
-0.0026125147 -0.0073507815 0.1907059
0.00022138668 -0.00801621 0.19000003
-0.010424478 -0.0019066146 0.19006671
-0.0073768236 -0.0022474637 0.19121125
-0.0026356012 -0.0028644104 0.1929529
7.2815637e-05 -0.0018558085 0.19225001
-0.020408982 0.0038978066 0.19000004
-0.017501621 0.0033395288 0.19041745
-0.012401492 0.0031057082 0.19072975
-0.0083395215 0.0024527579 0.19238324
-0.020654419 0.0076806024 0.19086488
-0.017631734 0.0073863668 0.19239859
-0.012460859 0.0074379989 0.19283994
-0.0088177277 0.0074485652 0.19396842
-0.0013475426 0.0095558036 0.19350001
-0.020658905 0.01088104 0.19226316
-0.017407192 0.011032613 0.19352834
-0.012428037 0.011960103 0.19317847
-0.0074616731 0.01246553 0.19161032
-0.0030215583 0.011726485 0.19213341
-0.0067129498 0.015121074 0.19033335
-0.0055696233 -0.0002117836 0.19500001
-0.0024584739 -0.00031559341 0.19500004
-0.0058803628 0.0028271531 0.19570217
-0.0026050641 0.0026376762 0.19652075
7.4172836e-05 0.0026265287 0.19583336
-0.0064591393 0.0075827469 0.19614807
-0.00270236 0.0074903187 0.19761026
0.00026041371 0.007397973 0.19725001
-0.017529842 0.011239307 0.1952143
-0.0069658887 0.010321548 0.19500001
-0.0039802752 0.010354729 0.19530003
