# .PCD v0.7 - Point Cloud Data file format
VERSION 0.7
FIELDS x y z
SIZE 4 4 4
TYPE F F F
COUNT 1 1 1
WIDTH 112
HEIGHT 1
VIEWPOINT 0 0 0 1 0 0 0
POINTS 112
DATA ascii
0.083929449 -0.081161126 0.30850002
0.086138777 -0.081216618 0.308
0.083970606 -0.079313442 0.3085455
0.086169437 -0.078736909 0.30895004
0.088452682 -0.067509405 0.30850005
0.059609577 -0.086179495 0.31333336
0.062517464 -0.086352639 0.31390011
0.067390777 -0.08549732 0.31400004
0.07290601 -0.085685961 0.31320009
0.076101147 -0.085435294 0.31300002
0.063134968 -0.083273046 0.3138206
0.068206936 -0.083138324 0.3140001
0.072540604 -0.082270667 0.31331739
0.077703141 -0.082471356 0.31254095
0.081426919 -0.082108729 0.31058058
0.088574082 -0.081501484 0.31075004
0.090166532 -0.080758914 0.31300002
0.073207647 -0.079044029 0.31400001
0.077720262 -0.077840097 0.31322029
0.082377091 -0.077316321 0.31206948
0.087043084 -0.07711906 0.3107692
0.079126336 -0.073761761 0.31400001
0.082108505 -0.073456459 0.31366673
0.086243659 -0.073765181 0.31300002
0.088262625 -0.067346863 0.31149998
0.064694077 -0.087148651 0.31500003
0.06890782 -0.08612714 0.31500003
0.070312403 -0.08612714 0.31500003
0.059466507 -0.080588073 0.31800002
0.062125538 -0.081451379 0.31588
0.067090712 -0.081569619 0.31500003
0.059484016 -0.078282535 0.31800002
0.062547229 -0.077781677 0.3169243
0.067538902 -0.077592663 0.31614059
0.07232248 -0.077090681 0.3161802
0.076118626 -0.076043233 0.31650001
0.063527502 -0.074384548 0.31800005
0.067422256 -0.073576108 0.3180488
0.072554722 -0.073310994 0.31894752
0.077361725 -0.072412916 0.31735301
0.082213342 -0.071134895 0.31520003
0.087413311 -0.072324693 0.31519994
0.07877735 -0.067979276 0.31817859
0.082464933 -0.06748873 0.31688049
0.08676555 -0.067688622 0.31735718
0.082566261 -0.064500235 0.31864291
0.086894952 -0.064979389 0.31900001
0.059587561 -0.075418189 0.32050002
0.060607672 -0.075342849 0.32040003
0.059436485 -0.074581116 0.32250002
0.062531278 -0.072616145 0.32223082
0.067270547 -0.071455061 0.32197225
0.072307162 -0.070766173 0.32078576
0.075484619 -0.070271537 0.32033336
0.063232772 -0.068537064 0.32400003
0.067893974 -0.068400018 0.32394603
0.072583504 -0.067812696 0.32340822
0.076874048 -0.06699881 0.32211322
0.087837547 -0.065377653 0.32000002
0.078624897 -0.063134082 0.32346427
0.082370423 -0.062133033 0.32150924
0.086773612 -0.063354813 0.32095999
0.060100969 -0.094489396 0.32900003
0.096841857 -0.091628596 0.3270334
0.094729751 -0.087287314 0.32700002
0.097353354 -0.087799788 0.32662168
0.10003189 -0.089143068 0.32700002
0.063249968 -0.066370137 0.32536358
0.067323685 -0.066112943 0.32513037
0.072346918 -0.065806344 0.32500002
0.062740706 -0.06484051 0.32700002
0.067638934 -0.063266337 0.326875
0.072409831 -0.06386181 0.32745725
0.059750728 -0.095689952 0.33100003
0.060466327 -0.096405551 0.33100003
0.088867418 -0.097055644 0.33305004
0.09247297 -0.096498482 0.33191887
0.096381664 -0.095719934 0.3303
0.059570745 -0.094384313 0.33050001
0.08960896 -0.092838489 0.33400002
0.092492908 -0.093254969 0.33215791
0.096347943 -0.094402045 0.33000001
0.097547799 -0.080249831 0.333
0.097328231 -0.076774329 0.33278042
0.097850509 -0.073954843 0.33346158
0.064296737 -0.065079741 0.33000001
0.067957602 -0.10055654 0.33810005
0.072502613 -0.10013079 0.3381429
0.075669535 -0.10038461 0.33900002
0.064492881 -0.098369151 0.33900005
0.067804396 -0.097855218 0.33857787
0.072387807 -0.098500162 0.33874196
0.075669535 -0.099560097 0.33900002
0.088163152 -0.096364185 0.33616671
0.069348313 -0.09488789 0.33900002
0.07264635 -0.094887897 0.33900005
0.088803872 -0.093318239 0.33605263
0.099018477 -0.072026849 0.33730772
0.10028334 -0.07151901 0.33766672
0.07811854 -0.1005863 0.34108335
0.082814507 -0.10173899 0.3436757
0.08617489 -0.10093558 0.34400004
0.064591244 -0.099578142 0.34
0.073194318 -0.09664759 0.34000003
0.077605054 -0.097937755 0.34127274
0.08208397 -0.097938254 0.34377778
0.086699426 -0.099488467 0.34350002
0.084840424 -0.10244103 0.34500003
0.086350806 -0.10288855 0.34500003
0.084520772 -0.097126737 0.34500009
0.086640239 -0.097102404 0.34500015
0.086364314 -0.094466433 0.34550002
