# .PCD v0.7 - Point Cloud Data file format
VERSION 0.7
FIELDS x y z
SIZE 4 4 4
TYPE F F F
COUNT 1 1 1
WIDTH 210
HEIGHT 1
VIEWPOINT 0 0 0 1 0 0 0
POINTS 210
DATA ascii
-0.012371205 0.013033982 0.15850024
-0.0091031482 0.01284421 0.15848006
-0.013796468 0.015706938 0.15900002
-0.0089429216 0.015424431 0.15900002
-0.016810106 0.0095911399 0.163
-0.0059392164 0.0093365368 0.16325003
-0.0047529829 0.0097616268 0.164
-0.016192373 0.012376568 0.16157426
-0.01367555 0.012255932 0.1606129
-0.0067299395 0.012318947 0.16260867
-0.0047529829 0.01199721 0.16400003
-0.015940566 0.016648754 0.16304004
-0.012393561 0.017533725 0.16176675
-0.0083540659 0.017556693 0.16199997
-0.012746789 0.022086823 0.16256696
-0.0078484034 0.020251667 0.164
-0.012797589 0.026333936 0.16345164
0.0029472085 0.0047599114 0.16871426
0.0055736527 0.0046623638 0.16900003
-0.031462751 0.0073247412 0.16898659
-0.027395373 0.00745739 0.16899994
-0.022753911 0.0078737913 0.1680734
-0.018797019 0.0085521666 0.16678719
-0.0057999655 0.0084048994 0.16585715
-0.0023749936 0.007907656 0.16730179
0.0021720629 0.0073306463 0.16868827
0.0054549468 0.0059833908 0.16899997
-0.031888448 0.01299003 0.16900001
-0.027464977 0.012217442 0.1688333
-0.023109533 0.011993619 0.16817996
-0.018856257 0.012201988 0.1675965
-0.005973855 0.014723281 0.16500001
-0.0025928747 0.012452327 0.16750607
0.0011272741 0.011713206 0.16900001
-0.023650011 0.015778312 0.16900003
-0.016837658 0.01816318 0.16646427
-0.010491505 0.019510072 0.16500001
-0.0064782691 0.017517721 0.16597065
-0.0034911982 0.016737856 0.16843024
6.400959e-05 0.015552772 0.16900001
-0.01567726 0.022185354 0.16642855
-0.011972133 0.022937613 0.16587384
-0.008208028 0.022053717 0.16762963
-0.0048978906 0.020160252 0.16900001
-0.015367146 0.026549749 0.16850001
-0.012227797 0.027542852 0.16693921
-0.0096051218 0.026507771 0.16878945
-0.012192988 0.03209886 0.16761902
-0.0041890475 0.032352354 0.16900001
-0.032352436 0.0041875187 0.17202631
0.004350428 0.0042445073 0.17033336
0.0079483511 0.0038393445 0.17101283
0.010564181 0.0035558247 0.17361112
-0.031773053 0.0074815177 0.17028576
-0.028065968 0.0084663341 0.1703231
-0.021519938 0.0091069881 0.17040001
0.0038007032 0.0093272896 0.17000002
0.007334488 0.0075241649 0.17185403
0.010261311 0.0054532234 0.17240001
-0.031175749 0.012376009 0.17092627
-0.02747192 0.012583763 0.17123446
-0.021716416 0.012974487 0.17121835
-0.01956713 0.014235872 0.17020002
-0.00084062037 0.013176595 0.16999999
0.0023911786 0.012534602 0.17140473
0.0063214237 0.011740006 0.17305127
-0.031371325 0.016899338 0.17283937
-0.027547453 0.016950436 0.17296666
-0.02247563 0.017307671 0.17211568
-0.018757641 0.017743252 0.17125998
-0.0018836393 0.018109459 0.1716383
0.0016149962 0.017112471 0.17302747
0.0051746052 0.015465552 0.17400001
-0.031211868 0.020391803 0.17400001
-0.02720828 0.02100125 0.17340003
-0.022450229 0.021108102 0.17399998
-0.017858606 0.022568868 0.17287271
-0.0073260041 0.023337433 0.17208751
-0.0034759997 0.022173662 0.1724536
0.00057171227 0.021990551 0.17334785
-0.01681648 0.026706664 0.17313792
-0.012260971 0.029701823 0.17
-0.0074908151 0.027545629 0.17222127
-0.015325274 0.030858569 0.17200002
-0.012316438 0.032776635 0.17091951
-0.007768984 0.032403726 0.17282088
-0.0037264992 0.032651588 0.17175506
-0.027661622 -0.00041960707 0.17885715
0.0040776785 -0.000556149 0.17899996
0.0066304426 -0.00063398469 0.17739476
-0.030701565 0.003130411 0.17577195
-0.028952245 0.0022239201 0.17810448
0.0042760014 0.0019345278 0.17860521
0.0072631603 0.0015972758 0.176202
0.010487339 0.0018335575 0.17560001
-0.030028084 0.0050948039 0.17500001
-0.028611358 0.0053894385 0.177
0.0094005838 0.0087666791 0.17652631
0.010460608 0.0076122023 0.17700002
0.0044703353 0.014636923 0.17500001
0.0083829053 0.013060618 0.17669566
-0.030640867 0.018624615 0.17513041
-0.027428262 0.01820728 0.17575906
-0.021237638 0.017810382 0.17542867
-0.019808393 0.019647984 0.17550001
0.0037968298 0.017957283 0.17535724
0.0067951903 0.017095868 0.17647709
-0.030930072 0.022517025 0.17650689
-0.027454874 0.022563366 0.17693794
-0.021765187 0.022635184 0.1766167
-0.019370843 0.022787634 0.17660001
-0.0010202182 0.021614168 0.17552175
0.0026888645 0.022392945 0.17698592
0.0063749943 0.020930113 0.17848483
-0.030843442 0.027423985 0.17856519
-0.027933793 0.026429351 0.17837498
-0.021720057 0.026936717 0.17747575
-0.018062744 0.027590213 0.17646159
-0.0068949913 0.027961945 0.17609441
-0.003530073 0.027774433 0.17750566
0.002467464 0.026692811 0.17853056
0.0010287666 -0.0050344034 0.18300001
-0.026463151 -0.0014683075 0.18308197
-0.024497939 -0.00049567746 0.18400002
0.0020815942 -0.0022818637 0.18204758
0.0054523298 -0.0020927896 0.18080001
-0.026954189 0.0027985899 0.18183327
-0.024564177 0.0028070903 0.18322225
0.0026660745 0.0021520692 0.18181254
-0.026965806 0.0054123872 0.18129414
-0.02442266 0.0055050435 0.18250002
0.010672222 0.0092554959 0.18000002
0.010709993 0.012556632 0.18058543
0.0090681259 0.018182501 0.1804039
0.010638937 0.016260339 0.18061906
-0.032983679 0.024316199 0.18150002
-0.025474086 0.022931555 0.18036845
-0.024745876 0.023551945 0.18064287
-0.0009270258 0.0245267 0.18000002
0.0044407723 0.023926144 0.18000004
0.0077486648 0.022759156 0.1813302
0.010612784 0.021261629 0.18328576
-0.032463256 0.027260885 0.18148783
-0.0012745254 0.027378587 0.18018062
-0.026416371 -0.0060032094 0.18750001
0.0016219743 -0.0050894236 0.185
-0.0263012 -0.0036190343 0.187075
-0.024829902 -0.0016149092 0.18700001
-0.025811173 0.0028155926 0.18499997
-0.02449625 0.0025331464 0.18527272
0.0013094884 0.002613995 0.18519229
-0.024114098 0.0052200118 0.186
-0.011740088 0.0097038569 0.18900001
-0.011497314 0.011051497 0.18900004
-0.0096393544 0.010853315 0.18900001
0.0097694742 0.023620822 0.18500002
0.010762858 0.023283981 0.18539284
-0.010342196 -0.010061198 0.19100001
-0.0065396116 -0.010364932 0.19333334
-0.0023499364 -0.010829503 0.19400014
0.00062515656 -0.010738259 0.19392857
-0.026364263 -0.0074611083 0.19251807
-0.022520049 -0.0074633802 0.19364947
-0.017586041 -0.0070092725 0.19284956
-0.012495364 -0.007317259 0.19152902
-0.0078037614 -0.0077312468 0.19286966
-0.0020897759 -0.0091375997 0.19400012
0.0011066567 -0.0077513116 0.19246559
-0.025536902 -0.0037564698 0.19173914
-0.021636505 -0.0036144683 0.1938751
-0.017054133 -0.0040127598 0.19400015
-0.012368915 -0.0029628957 0.1934267
-0.0087102065 -0.004021537 0.19350004
-0.022973053 0.0030861443 0.19314286
-0.023900457 0.0053399997 0.19266668
-0.011781889 0.009103586 0.19219355
-0.011381503 0.010951179 0.19123811
-0.0094887158 0.010186558 0.19266668
-0.0029932517 -0.011703221 0.19500001
-0.02384959 -0.0053645279 0.19500001
-0.005683824 -0.006113017 0.19524999
-0.0027733783 -0.0068360982 0.19592015
7.385722e-05 -0.0061824238 0.19500002
-0.022991285 -0.0020627191 0.19603954
-0.017928408 -0.0017492101 0.19589701
-0.012933536 -0.00047166264 0.19548278
-0.0071770526 -0.0020790519 0.19631135
-0.003037656 -0.0033706045 0.19847952
-0.022278331 0.0020264103 0.19692123
-0.017469326 0.0017897249 0.19813955
-0.012566198 0.0026505513 0.19757624
-0.0084645981 0.0021824536 0.19849378
-0.021294452 0.0067519988 0.19707693
-0.017633228 0.0084514897 0.19782537
-0.012611894 0.0071503213 0.1984615
-0.0083509227 0.0072675543 0.19839366
-0.004097993 0.0062108561 0.19900002
-0.015664255 0.011368043 0.198
-0.014373787 0.011429848 0.19655003
-0.0024121485 -0.0012267843 0.20032829
-0.022558505 0.0040887343 0.20042308
-0.017950557 0.0038406183 0.2005918
-0.0066575501 0.0032620358 0.20007683
-0.0026646378 0.0024857912 0.20144697
-0.02223408 0.0058618407 0.20046875
-0.017759448 0.0068033817 0.20081575
-0.014231597 0.0077799917 0.20000002
-0.0056764828 0.005762714 0.20000002
-0.00312276 0.0054146792 0.20145164
-0.016701775 0.010683396 0.20071429
