# .PCD v0.7 - Point Cloud Data file format
VERSION 0.7
FIELDS x y z
SIZE 4 4 4
TYPE F F F
COUNT 1 1 1
WIDTH 151
HEIGHT 1
VIEWPOINT 0 0 0 1 0 0 0
POINTS 151
DATA ascii
0.0745162 -0.020350873 0.208
0.077612773 -0.02058824 0.20603703
0.082616195 -0.020937022 0.20749058
0.074353844 -0.017502269 0.20736954
0.07717061 -0.017500319 0.20572729
0.082047902 -0.01854291 0.20720004
0.085418433 -0.018974423 0.2085
0.07470303 -0.014282537 0.2086
0.076785192 -0.01303232 0.20814933
0.072762027 -0.0222295 0.21151045
0.075590812 -0.02155162 0.21000001
0.084175445 -0.022458263 0.21025001
0.088042833 -0.022510601 0.21182792
0.092538886 -0.022598213 0.21227959
0.096549824 -0.022537449 0.21210445
0.07273449 -0.017686093 0.21199997
0.083303981 -0.016266584 0.2123256
0.087237284 -0.017749207 0.21328124
0.091521107 -0.019319329 0.21354289
0.095768124 -0.01999585 0.21400003
0.073535174 -0.012775603 0.21302663
0.077132314 -0.011544415 0.21164149
0.082255721 -0.012642589 0.21268888
0.086210683 -0.014151804 0.214
0.073514484 -0.0097943349 0.21400002
0.077242732 -0.008062439 0.21224691
0.081851698 -0.009712318 0.21400003
0.06486325 -0.027446628 0.21900003
0.067548878 -0.026852129 0.21812201
0.071487263 -0.025811916 0.21680002
0.098952621 -0.025890963 0.21900001
0.10001791 -0.026144603 0.21900001
0.068902738 -0.022974063 0.21759425
0.070854679 -0.022853691 0.21557783
0.094356366 -0.020089287 0.215
0.09777303 -0.020182725 0.21600001
0.06983462 -0.017503897 0.21900001
0.070855409 -0.017309302 0.21672416
0.088958055 -0.016795086 0.21516132
0.092521623 -0.017159067 0.21529891
0.096914455 -0.017898533 0.21735439
0.069834612 -0.013183543 0.21900001
0.071382888 -0.012651228 0.21701285
0.084836595 -0.011963953 0.21499999
0.087698519 -0.012507104 0.21576545
0.092485309 -0.013473216 0.21842304
0.095858186 -0.013005993 0.21899995
0.073289059 -0.0076212464 0.21623407
0.076556057 -0.0066102976 0.21533337
0.082657978 -0.0073506897 0.21686168
0.086526468 -0.008228627 0.21745762
0.074168012 -0.0031822629 0.21802779
0.077651463 -0.0025306952 0.21814744
0.081304237 -0.0031385473 0.21778573
0.077114113 0.00037674382 0.21900004
0.059262488 -0.030939167 0.22384617
0.060977578 -0.030668808 0.22350001
0.094450198 -0.030147566 0.22233336
0.095400549 -0.030376071 0.22100002
0.05955068 -0.027989626 0.22151728
0.062316827 -0.027031261 0.22048141
0.065480486 -0.026478017 0.22000001
0.094097234 -0.028087456 0.22203232
0.097163454 -0.027927475 0.22057946
0.10020708 -0.027334142 0.22000001
0.059806459 -0.024320148 0.22400002
0.062657341 -0.022565611 0.22254266
0.066804886 -0.022064554 0.22118951
0.063908815 -0.019215092 0.2238421
0.068021446 -0.018103292 0.22278944
0.070235305 -0.016718764 0.22125001
0.097501956 -0.015324603 0.22000001
0.10051747 -0.018196549 0.22042862
0.070427604 -0.012327271 0.22058335
0.09293925 -0.011110551 0.22014995
0.096321456 -0.011001163 0.22018752
0.071666881 -0.0074183475 0.22145945
0.088354111 -0.0065517114 0.22095242
0.092465222 -0.0077934824 0.22147629
0.096182659 -0.007983325 0.22147167
0.072851859 -0.0026759568 0.22207038
0.076663621 -0.0025421723 0.22000001
0.083549961 -0.0022047148 0.22094233
0.087040938 -0.0030824305 0.22233783
0.092016719 -0.0041352492 0.22338237
0.065894224 -0.035433024 0.22900002
0.058431737 -0.030326743 0.22500001
0.063131273 -0.0328134 0.22675391
0.066274621 -0.032483146 0.22874363
0.070052914 -0.034393348 0.22900002
0.059107453 -0.026903069 0.22681254
0.059403963 -0.023357201 0.22791672
0.060458045 -0.0212372 0.22710527
0.062883496 -0.017366163 0.22682361
0.066913247 -0.01591472 0.22534096
0.070288591 -0.015186453 0.22500001
0.1026263 -0.0154482 0.228875
0.063847229 -0.012774303 0.22820756
0.067581408 -0.012546114 0.22683457
0.070443578 -0.011808165 0.22570588
0.10212895 -0.013154016 0.22842313
0.064668894 -0.0098867547 0.22900002
0.068346903 -0.0085230405 0.22825004
0.070787877 -0.0070744427 0.22710641
0.09823148 -0.0064229113 0.22511421
0.10056031 -0.008577588 0.22580002
0.068513662 -0.035937481 0.23082609
0.070441514 -0.036083817 0.2315
0.068309285 -0.033536006 0.23070268
0.070358828 -0.034916468 0.23
0.059510477 -0.020983415 0.23028573
0.059367344 -0.018153843 0.23166664
0.060983799 -0.017014561 0.2313658
0.10317697 -0.015523931 0.23
0.059251327 -0.012379139 0.23400001
0.061876107 -0.012208902 0.23279412
0.065883622 -0.010302862 0.23
0.063887872 -0.0079259947 0.23249021
0.067058519 -0.0066677891 0.23157887
0.070358828 -0.0050817933 0.23
0.082572147 -0.040481944 0.23862499
0.092762418 -0.040276133 0.23700002
0.096157849 -0.040403109 0.23816667
0.083689928 -0.038613562 0.23835714
0.087341994 -0.037723225 0.23808439
0.092409432 -0.037709672 0.23785594
0.096654817 -0.037899259 0.23867276
0.087523244 -0.034818143 0.23855557
0.090550691 -0.034732662 0.23900001
0.098301232 -0.033376321 0.23900001
0.059544954 -0.01181392 0.23509096
0.061047763 -0.012051 0.23500009
0.073298648 -0.041979712 0.24300002
0.077407733 -0.041559055 0.24218982
0.080914952 -0.04087808 0.24014288
0.09832339 -0.040520635 0.24000001
0.074332707 -0.038845923 0.24120004
0.077673353 -0.037340622 0.24318178
0.081920207 -0.037123043 0.24102375
0.091902435 -0.035267133 0.24000001
0.098031521 -0.036629148 0.23999994
0.078424171 -0.033087038 0.24390924
0.082498252 -0.032562494 0.24199995
0.087290823 -0.03232301 0.24092835
0.092414409 -0.032591764 0.24081409
0.09671367 -0.032945499 0.24027526
0.083505243 -0.029177001 0.24163161
0.087675169 -0.028340045 0.24193832
0.09226317 -0.028694838 0.24172412
0.096190087 -0.029587012 0.24075
0.077033035 -0.033187971 0.24499997
