# .PCD v0.7 - Point Cloud Data file format
VERSION 0.7
FIELDS x y z
SIZE 4 4 4
TYPE F F F
COUNT 1 1 1
WIDTH 187
HEIGHT 1
VIEWPOINT 0 0 0 1 0 0 0
POINTS 187
DATA ascii
-0.052022398 0.012328715 0.15400001
-0.052194446 0.012986086 0.15700002
-0.03671205 0.013245388 0.15856479
-0.033407275 0.013502006 0.15821509
-0.052322391 0.015644873 0.15850002
-0.036378417 0.015621634 0.15895237
-0.034264386 0.016157845 0.15856248
-0.053462297 0.0099079674 0.16350001
-0.047193605 0.0093541592 0.16386792
-0.044098966 0.0099382671 0.164
-0.05582761 0.011150707 0.16314287
-0.052385263 0.011541346 0.16335988
-0.047749486 0.011552438 0.16399977
-0.041828137 0.012494402 0.16237734
-0.039278559 0.01291254 0.16072415
-0.032137245 0.013145018 0.16271009
-0.05263079 0.017019961 0.16114286
-0.041053951 0.016543277 0.16350006
-0.037456729 0.017754974 0.16172631
-0.03294209 0.017888393 0.16102523
-0.036140081 0.021537092 0.16329634
-0.033141989 0.022322673 0.16265941
-0.032940648 0.025647871 0.16400002
-0.057632197 0.0090953102 0.16754004
-0.053546086 0.0098330434 0.16542859
-0.047079742 0.0088596139 0.16554546
-0.030770747 0.0084705353 0.16722499
-0.029547943 0.0087242331 0.168
-0.057280716 0.01040768 0.16555996
-0.052103609 0.013700802 0.16566665
-0.046806052 0.013600917 0.16548008
-0.044470262 0.013306547 0.16551998
-0.030915426 0.012270181 0.16567416
-0.029515915 0.012109261 0.16769843
-0.052534491 0.017390249 0.16780378
-0.047425471 0.017510202 0.16769789
-0.042995863 0.017452316 0.16622643
-0.039739441 0.019228971 0.16500001
-0.031148272 0.01759393 0.16620959
-0.029708892 0.016877493 0.16806249
-0.055171333 0.021544795 0.16900001
-0.053425007 0.020669034 0.16803847
-0.047632691 0.021218071 0.16879728
-0.041432187 0.022051005 0.16804409
-0.038154881 0.022861851 0.16623536
-0.031857889 0.022272302 0.16752113
-0.041744109 0.02531264 0.16900001
-0.037035678 0.026927697 0.16773529
-0.032920942 0.027709221 0.16645738
-0.035399992 0.03135382 0.1684286
-0.033047196 0.031434588 0.1678611
-0.05638285 0.0043267719 0.17361908
-0.026589423 0.0044776835 0.17302939
-0.024680229 0.0043297638 0.17371431
-0.057000384 0.0075833728 0.17128859
-0.030402476 0.0063790432 0.17012499
-0.027442135 0.0072707576 0.17210881
-0.024575781 0.0064276201 0.17363639
-0.054617051 0.010118896 0.17157145
-0.028768232 0.012598956 0.17130135
-0.053463012 0.018668966 0.17025
-0.045195103 0.01932908 0.171
-0.044645794 0.019382928 0.17066668
-0.030182229 0.019426927 0.17025
-0.029226176 0.017062437 0.17123996
-0.055421934 0.023746578 0.17107692
-0.053140074 0.022707961 0.17156212
-0.046979304 0.022944294 0.17136486
-0.043004967 0.023750551 0.17121625
-0.030765962 0.023065576 0.17029412
-0.029515997 0.022654165 0.17156249
-0.055176303 0.027893605 0.17257144
-0.053096663 0.02675773 0.17305659
-0.047724307 0.027126765 0.17337228
-0.041660119 0.02721566 0.17151946
-0.03865964 0.02855235 0.1706316
-0.030904735 0.02737833 0.17145155
-0.029587921 0.026907008 0.17289476
-0.055204876 0.030105432 0.17400001
-0.050313577 0.030550782 0.17385717
-0.049220707 0.030913206 0.17381251
-0.041159563 0.031083349 0.17396966
-0.03818462 0.032382168 0.17283958
-0.032185066 0.032674529 0.17120372
-0.056573108 0.0031072369 0.17674422
-0.054493934 0.0044492641 0.1762
-0.026125308 0.0032533526 0.17658333
-0.022526639 0.0031885959 0.17743082
-0.05611898 0.007373089 0.17670336
-0.05423829 0.0071635158 0.17711765
-0.026974553 0.0092358952 0.17536843
-0.023104034 0.0073199924 0.17813151
-0.055711314 0.010037351 0.17500001
-0.026882093 0.012588016 0.17650677
-0.024613606 0.012599885 0.17805126
-0.027487418 0.017113866 0.1773867
-0.024753707 0.015784189 0.17866667
-0.054292552 0.024319625 0.17500001
-0.028971668 0.022465909 0.17706352
-0.05515372 0.029578185 0.17533335
-0.053154726 0.028070424 0.17533341
-0.046436008 0.028460305 0.1756462
-0.044329721 0.02874993 0.17600003
-0.029028058 0.027159786 0.17741027
-0.060299557 -0.001481242 0.18133335
-0.059316553 -0.0026495727 0.18176098
-0.030565165 -0.0020718342 0.18360004
-0.027664874 -0.0020490694 0.1830695
-0.023576854 -0.0013074116 0.18271159
-0.060153045 0.00011020916 0.18200001
-0.058850814 0.0009269251 0.18177779
-0.030382691 0.0010810472 0.18400002
-0.027204704 0.0010968926 0.18327664
-0.022782119 0.001265054 0.18124384
-0.055649187 0.0064326525 0.18000001
-0.054655686 0.0071514267 0.18033335
-0.021033838 0.0077834395 0.18030612
-0.019838447 0.0078515531 0.18111113
-0.022484908 0.012324507 0.18094903
-0.019772992 0.01024211 0.18200001
-0.026929338 0.018748283 0.18098442
-0.023673888 0.017118134 0.18303484
-0.027137712 0.022393232 0.18273422
-0.024276759 0.021315331 0.18388574
-0.060213741 -0.0053445632 0.18700001
-0.057786584 -0.0055056969 0.188674
-0.052748397 -0.0057536368 0.18890488
-0.048435908 -0.0060958522 0.18888383
-0.032966971 -0.0055590533 0.18825001
-0.060201313 -0.0035394356 0.18775001
-0.058573645 -0.0027875002 0.18818685
-0.052857738 -0.0038783366 0.1890001
-0.048854958 -0.0044568246 0.18900001
-0.032843534 -0.0031013896 0.18726003
-0.059217352 0.00085959001 0.1871143
-0.031344872 0.0016225581 0.18635294
-0.028730568 0.0014793224 0.18499996
-0.020711005 0.013506592 0.18588233
-0.019704916 0.013684167 0.18600002
-0.021627191 0.017915323 0.18523926
-0.019832065 0.017241525 0.18650001
-0.02569503 0.024472283 0.18522222
-0.022439905 0.022760771 0.18693796
-0.046034388 -0.0064647794 0.1911449
-0.043588836 -0.0076182308 0.1938538
-0.035465416 -0.0068450016 0.19333333
-0.03431195 -0.0067125559 0.19320002
-0.057162013 -0.0017874427 0.19040251
-0.052227173 -0.0016529076 0.19016835
-0.047399908 -0.0024354255 0.1916025
-0.044773661 -0.0035524059 0.19400001
-0.035409771 -0.004839492 0.19100001
-0.034762263 -0.0028116633 0.19000001
-0.057395961 0.0023329181 0.19196202
-0.052409228 0.0022883485 0.19247073
-0.048575554 0.0010393407 0.19352469
-0.033067845 0.0025796574 0.19000001
-0.057543114 0.0057294178 0.19283333
-0.053738654 0.005150456 0.19400001
-0.020479774 0.019503621 0.1904
-0.040918984 -0.010674679 0.19782354
-0.038785536 -0.010311885 0.19676927
-0.045162544 -0.0052570254 0.19500001
-0.041458387 -0.0071458691 0.19629802
-0.037972331 -0.0077850111 0.19679162
-0.034924988 -0.0073872097 0.19700001
-0.045308542 -0.0019138845 0.19575003
-0.042517602 -0.0028609002 0.19697961
-0.038924143 -0.0036183493 0.19851726
-0.052132938 0.0047458466 0.19500002
-0.047097281 0.0028468145 0.19608314
-0.043799203 0.0015106243 0.19881825
-0.056820061 0.0076865228 0.19567062
-0.052527111 0.0074784583 0.19594771
-0.047878012 0.0075197062 0.19718063
-0.052179683 0.011293577 0.19706047
-0.04787099 0.011568755 0.19732971
-0.044179816 0.012131348 0.19625002
-0.041182183 -0.00096082699 0.20033334
-0.039224632 -0.0015617975 0.20042427
-0.045755953 0.0035272129 0.20004547
-0.042087406 0.002803525 0.20123085
-0.038944252 0.0021858178 0.2017888
-0.045699734 0.0074671721 0.20100006
-0.043135475 0.0067564249 0.20157143
-0.045977395 0.011135443 0.20168421
-0.04427078 0.010713836 0.20100001
