# .PCD v0.7 - Point Cloud Data file format
VERSION 0.7
FIELDS x y z
SIZE 4 4 4
TYPE F F F
COUNT 1 1 1
WIDTH 198
HEIGHT 1
VIEWPOINT 0 0 0 1 0 0 0
POINTS 198
DATA ascii
-0.028014548 0.0092640147 0.1636177
-0.022815026 0.0095823659 0.16296001
-0.026849158 0.011849459 0.16324317
-0.023614043 0.012214354 0.16255389
-0.02511397 0.015505353 0.16400002
-0.023860291 0.015653279 0.16376925
-0.031123713 0.0086028595 0.16606812
-0.027951419 0.0091305124 0.16515997
-0.020787692 0.0089963786 0.16524997
-0.019606281 0.0086749047 0.1675
-0.031044029 0.012384783 0.16800003
-0.027977349 0.013102256 0.16550002
-0.021626169 0.012548165 0.16722977
-0.019559454 0.011253441 0.16752382
-0.030607078 0.015607299 0.16900001
-0.027219897 0.017474169 0.1672406
-0.022844059 0.017711412 0.1664616
-0.026416568 0.021155588 0.16845453
-0.023319531 0.022395145 0.16732253
-0.01570856 0.023456473 0.16675861
-0.023535047 0.025994405 0.16873077
-0.047325142 0.0044827666 0.17364289
-0.044153865 0.0048294361 0.17212501
-0.016781604 0.0042370507 0.17256096
-0.014305859 0.0036795854 0.17350002
-0.04651558 0.00734341 0.17207147
-0.042610291 0.0074645667 0.17224883
-0.037767023 0.0074443039 0.17199355
-0.034067981 0.0078741452 0.17160782
-0.020446798 0.0071283686 0.171
-0.017375235 0.0074522779 0.17197262
-0.014456805 0.0059157563 0.1739524
-0.045995757 0.011610697 0.17334996
-0.043774422 0.011577397 0.17343833
-0.037939519 0.01171062 0.17337997
-0.033907846 0.011694371 0.17327584
-0.020939885 0.013766302 0.1716875
-0.017425187 0.012556302 0.17253725
-0.030912131 0.017802987 0.17067394
-0.029641194 0.018034544 0.17017648
-0.020866418 0.017683959 0.17216951
-0.018337697 0.017341243 0.17324705
-0.030556573 0.021693652 0.17259999
-0.02771632 0.022741089 0.17119673
-0.021337582 0.022453133 0.17250666
-0.016565613 0.021911263 0.1717647
-0.014888403 0.023951838 0.17242858
-0.027011493 0.026853554 0.17326128
-0.022292288 0.027538396 0.17180166
-0.015265609 0.026036495 0.17080002
-0.014553227 0.026017046 0.1722381
-0.02267251 0.031585656 0.17366661
-0.0061096018 -0.00016890711 0.1785
-0.046736538 0.002803813 0.17703193
-0.044259623 0.0045480886 0.17875001
-0.011803364 0.0031994719 0.17539792
-0.0080968533 0.0024090391 0.17730086
-0.041405223 0.0098658632 0.17500001
-0.037199304 0.007883097 0.17503706
-0.015369306 0.0088699078 0.17525002
-0.012353765 0.0076377094 0.17648561
-0.0088309962 0.0069992165 0.17839478
-0.046848252 0.013466376 0.17582864
-0.0422065 0.012990466 0.17626497
-0.037040386 0.013305876 0.17642468
-0.034418546 0.013318424 0.17500001
-0.015409074 0.012740731 0.17500001
-0.013122668 0.012141953 0.17761546
-0.0095516518 0.010701383 0.17900001
-0.046244673 0.017282216 0.17773135
-0.042943202 0.017110096 0.17705807
-0.037874348 0.017352425 0.17728037
-0.033887699 0.017389135 0.17601618
-0.020512089 0.01677075 0.17541178
-0.01673989 0.017633215 0.17563042
-0.014502911 0.017197199 0.17758697
-0.04378368 0.020930778 0.17871995
-0.037198909 0.020736771 0.17868179
-0.032963973 0.022208951 0.17760001
-0.020548563 0.023445375 0.1756552
-0.017683847 0.021891726 0.17628945
-0.014338585 0.022654735 0.17744899
-0.030969333 0.027402103 0.17745286
-0.02817516 0.028771477 0.17556529
-0.020498505 0.02809744 0.17691895
-0.019269003 0.02796603 0.17845832
-0.013958185 0.027228046 0.17738236
-0.045230661 -0.00023324158 0.18000001
-0.043881211 -0.0012503869 0.18244191
-0.010349042 -0.0031325179 0.18400002
-0.0079961382 -0.001868841 0.18240182
-0.0048391982 -0.0004219868 0.18000001
-0.045360029 0.0025514539 0.18026668
-0.044128798 0.0024561028 0.18145904
-0.010456566 0.00033761899 0.1825
-0.0064976024 0.0029868181 0.18162264
-0.0047145244 0.0022959909 0.18142857
-0.0071546151 0.0080032833 0.18122035
-0.011329219 0.013339757 0.18082696
-0.0080649294 0.012532948 0.18168104
-0.047539931 0.019067489 0.18016671
-0.041519087 0.018253388 0.18055318
-0.036997553 0.017780757 0.18055554
-0.01217205 0.017525505 0.18187216
-0.0091782575 0.016473904 0.18315795
-0.046380416 0.022408037 0.18150003
-0.042473018 0.022604365 0.18185708
-0.037574369 0.022578511 0.1814952
-0.033838987 0.023739297 0.1802143
-0.013187782 0.02175748 0.18273586
-0.045658082 0.026810272 0.18385002
-0.042839378 0.026693061 0.18322675
-0.033595093 0.027541667 0.18159708
-0.019198768 0.027362702 0.18123078
-0.015910828 -0.0065214103 0.18838714
-0.013408064 -0.005545096 0.1866667
-0.042304371 -0.0021698661 0.1863154
-0.015677029 -0.0034451592 0.18834786
-0.012500068 -0.0024598949 0.18624017
-0.042271391 0.0023800377 0.18688811
-0.039920907 0.0034427424 0.18850002
-0.012536732 0.00064698729 0.1869231
-0.0059435605 0.0038340304 0.185
-0.0057495711 0.0072583123 0.18611425
-0.0056758532 0.012611896 0.18685716
-0.0046847928 0.013627869 0.18900001
-0.0101725 0.019430676 0.185
-0.0069828508 0.017712979 0.18683845
-0.0046847928 0.016600607 0.18900001
-0.047844984 0.024784749 0.185
-0.041073501 0.02422604 0.18566668
-0.037068959 0.02462096 0.18585715
-0.011410043 0.022858389 0.18557003
-0.0084951799 0.022350688 0.18738376
-0.045764487 -0.0072157397 0.19284208
-0.043787181 -0.0071691843 0.19241275
-0.015069593 -0.006223131 0.19000001
-0.041761171 -0.0032614358 0.19200003
-0.015778795 -0.0009955212 0.19043753
-0.014429159 -0.00020701985 0.19100001
-0.040438339 0.0012812386 0.19000003
-0.015575436 0.0007547526 0.19133334
-0.014424306 0.00075715111 0.192
-0.0053383717 0.0092222039 0.19033334
-0.0045691868 0.0096358825 0.1908
-0.0051080426 0.010711509 0.19000003
-0.0045549436 0.012834214 0.19020003
-0.0051080426 0.019876137 0.19000001
-0.0044985805 0.017784545 0.19006671
-0.042048521 -0.010285797 0.19769229
-0.038066633 -0.010266862 0.19687501
-0.026375774 -0.010696557 0.19710346
-0.0229434 -0.011846673 0.19866669
-0.018405737 -0.011975409 0.19882004
-0.045523826 -0.0096584819 0.19500001
-0.041776679 -0.0075757145 0.19696578
-0.037433501 -0.0073566516 0.19708209
-0.032432552 -0.0072628846 0.19607185
-0.027633246 -0.0074652405 0.19707392
-0.024535377 -0.0085540051 0.19870593
-0.017524902 -0.0094274608 0.19790003
-0.041137658 -0.0030180141 0.19709525
-0.037154067 -0.0041421945 0.19862068
-0.032215729 -0.003634793 0.19862963
-0.028605254 -0.0029379099 0.19852054
-0.04103256 0.0012016078 0.19880001
-0.030237477 0.0078406036 0.19800001
-0.028305881 0.0087576965 0.19845162
-0.028720846 0.010384222 0.19900002
-0.021650285 -0.010941384 0.20011617
-0.01915828 -0.011194396 0.20000003
-0.025174156 -0.0060892873 0.2
-0.022328932 -0.007295724 0.20088908
-0.019209919 -0.0072458154 0.2011667
-0.040559441 -0.0019573316 0.20057148
-0.037495844 -0.0017699277 0.20077986
-0.032826722 -0.0015431001 0.2004177
-0.026484769 -0.0017931082 0.20056975
-0.022742068 -0.0028085415 0.20321961
-0.019020285 -0.0032301308 0.20370372
-0.040674925 0.0026296629 0.20215224
-0.037496999 0.0024571551 0.20293687
-0.032434177 0.0025444792 0.20218743
-0.027348561 0.0024544236 0.20219114
-0.024148175 0.0028908504 0.20400001
-0.017891273 0.0012330383 0.20400001
-0.040952649 0.0052921576 0.20380001
-0.036964506 0.0063778311 0.20363028
-0.032027051 0.0067543644 0.20277379
-0.02744073 0.0066234814 0.2022143
-0.024337105 0.0058994084 0.20271429
-0.030758094 0.010562783 0.20318183
-0.029577453 0.010117141 0.20200001
-0.021434251 -0.0005920566 0.20499995
-0.019178223 -0.0010915346 0.20499997
-0.02268251 0.0020805968 0.2052857
-0.019140722 0.0014019101 0.20572728
-0.034530878 0.006828038 0.20500001
