# .PCD v0.7 - Point Cloud Data file format
VERSION 0.7
FIELDS x y z
SIZE 4 4 4
TYPE F F F
COUNT 1 1 1
WIDTH 179
HEIGHT 1
VIEWPOINT 0 0 0 1 0 0 0
POINTS 179
DATA ascii
-0.005090971 -0.025434408 0.21900001
-0.0020588452 -0.025728161 0.21662071
0.002287427 -0.025357235 0.21773337
0.0074603637 -0.025693906 0.219
0.012676053 -0.025887884 0.21863332
0.017132254 -0.025650229 0.21703704
0.022859149 -0.025300598 0.21683334
0.025565788 -0.025197675 0.21900003
-0.0021648095 -0.02254587 0.21709666
0.0023468544 -0.022824137 0.218375
0.0066469763 -0.024309935 0.21900006
0.013664594 -0.023714311 0.21884613
0.017559523 -0.022703098 0.21781886
0.022203496 -0.022647183 0.21700865
0.025595922 -0.023986606 0.21875
-0.0032314069 -0.019403921 0.2178182
0.018633988 -0.019419946 0.21900004
0.021635378 -0.018749878 0.21863332
-0.0054729739 -0.026670437 0.221875
-0.0036956689 -0.027908526 0.2226667
0.0092873052 -0.025756121 0.22009094
0.01068334 -0.025601508 0.22000003
0.024136743 -0.025907265 0.22000001
0.025920339 -0.025550546 0.22000001
0.0043925988 -0.021065485 0.22005883
0.0077133803 -0.022077862 0.22105265
0.012014943 -0.021880465 0.22128887
0.015664667 -0.020288941 0.22000001
0.024243759 -0.021198576 0.22000001
0.025392748 -0.022063328 0.22028573
-0.0021020356 -0.017289232 0.22074491
0.002630376 -0.017441785 0.22211418
0.0073902365 -0.017836999 0.22376934
0.012855861 -0.017999465 0.22320002
0.017363627 -0.017244244 0.22095381
0.022638874 -0.017294971 0.22096057
0.025469378 -0.018519288 0.22308335
-0.0051839566 -0.013243547 0.223
-0.0026230826 -0.013087571 0.22240821
0.0019451622 -0.013945737 0.22372729
0.01833871 -0.012751088 0.22263958
0.021991525 -0.013201149 0.2221818
-0.0038389 -0.0075202617 0.22362499
0.018885385 -0.0096708871 0.22400002
-0.003391179 -0.0047676223 0.22400001
-0.0018887985 -0.031144369 0.22900002
0.026341684 -0.031664819 0.2289584
-0.003088804 -0.029686987 0.22850002
0.024752842 -0.029566294 0.22900002
0.026352059 -0.029270317 0.22814287
0.0081951572 -0.015496559 0.22499995
0.011500792 -0.016243549 0.22569232
0.024460105 -0.017083179 0.22516668
0.025414957 -0.016828172 0.22500001
-0.0010356058 -0.011033299 0.2253571
0.0027395464 -0.011814319 0.22682363
0.0075262054 -0.012509826 0.22743236
0.012899308 -0.012692415 0.22742191
0.016200669 -0.01234809 0.22721057
0.022507489 -0.011337656 0.22597775
0.025495466 -0.010258067 0.22900002
-0.002157425 -0.0075833742 0.22719418
0.0021627836 -0.0085425908 0.22845617
0.007723704 -0.009156934 0.22900006
0.013114436 -0.0089927278 0.22893338
0.018519906 -0.007381713 0.22638988
0.022410488 -0.0077980445 0.22723813
0.02563471 -0.008865647 0.229
-0.002770853 -0.0039320095 0.22823079
0.019099686 -0.0033948277 0.22840914
0.020581726 -0.0033012244 0.22872226
-0.011130957 -0.035523716 0.23400001
0.02946691 -0.035523716 0.23400001
0.030678138 -0.035584398 0.23340002
-0.011257431 -0.032361887 0.23400001
-0.0058126715 -0.032427121 0.23373333
-0.0031167851 -0.031403504 0.23120689
0.028553868 -0.032436188 0.23142423
0.030812023 -0.032476038 0.23349999
-0.001244413 -0.029322468 0.23
0.028856842 -0.027455181 0.23359098
0.030402815 -0.028137686 0.234
0.0281811 -0.023297982 0.234
0.010875926 -0.015150997 0.23
0.028033217 -0.016291201 0.23331252
0.0054683904 -0.011545974 0.23
0.012312471 -0.012092424 0.23092496
0.015619206 -0.011489234 0.230875
0.024860935 -0.01188783 0.23
0.025961576 -0.012565179 0.23076472
-0.00049854594 -0.0053055533 0.23
0.0028179651 -0.0061573172 0.23043628
0.0072973249 -0.0069277077 0.23078398
0.012401841 -0.0074616484 0.23167115
0.016095061 -0.0071412707 0.2332827
0.022440733 -0.00604248 0.23062499
0.025660077 -0.0075324988 0.23000002
-0.0020055801 -0.0020520452 0.23084998
-0.01087283 -0.036248662 0.23661543
-0.0091135111 -0.035467558 0.23800004
0.029453102 -0.036593579 0.2385
0.031552561 -0.037381638 0.2388182
-0.010769093 -0.032121658 0.23607695
-0.0082109673 -0.032757506 0.23646389
-0.0040724324 -0.033182614 0.23533335
0.031944472 -0.03148561 0.237
-0.010814046 -0.028029349 0.2384242
-0.0094278278 -0.027422642 0.23808335
0.029592838 -0.025006386 0.23500001
0.031546049 -0.027437855 0.23689193
-0.010779852 -0.023865536 0.23883334
-0.0085962899 -0.021543717 0.23733334
0.029011121 -0.022141967 0.23646671
0.030714715 -0.023561694 0.23794444
-0.0086272666 -0.018216789 0.23678261
0.028343391 -0.018681528 0.23635295
0.011557413 -0.006091502 0.23568428
-0.0070313206 -0.040695384 0.24234381
-0.0023755732 -0.040972903 0.24303851
0.0014492172 -0.041318204 0.24394447
0.018783532 -0.041162156 0.24306063
0.022509376 -0.041107763 0.24179593
0.027324971 -0.04079229 0.24031249
0.030806195 -0.040455773 0.24000001
-0.011183877 -0.03858076 0.24073686
-0.0074921669 -0.038014542 0.24192686
-0.002496396 -0.037375439 0.2431978
0.00103899 -0.038389903 0.24399997
0.019118967 -0.038752001 0.24356249
0.022761097 -0.037487872 0.24258007
0.027354831 -0.038117785 0.24065375
0.03194198 -0.038573507 0.24045707
-0.0033918216 -0.034644369 0.24200001
0.024751507 -0.034562014 0.24233335
0.033227097 -0.032490034 0.24028574
-0.011027219 -0.026550218 0.24000001
0.033166509 -0.027740728 0.24035995
-0.010391614 -0.022869814 0.24060002
-0.0095397858 -0.022945326 0.24080953
0.029833324 -0.020868661 0.24000001
0.031981431 -0.021957731 0.24256253
0.029700903 -0.018962072 0.24050002
0.031238694 -0.019168731 0.24375001
0.028366435 -0.011599987 0.24300002
0.0091500562 -0.046380371 0.24900001
0.003828268 -0.041775003 0.2465625
0.0055981427 -0.042066917 0.24884214
0.016827634 -0.042377625 0.24716669
-0.00053105981 -0.035207354 0.245
0.0026945551 -0.037224106 0.24696003
0.0054528429 -0.039312705 0.24871433
0.01811105 -0.037035059 0.24633327
0.020613426 -0.035595987 0.24555556
-0.00062481774 -0.032552842 0.24584612
0.0015776558 -0.032697298 0.24738596
0.019216081 -0.033322372 0.24810527
0.021912878 -0.032609634 0.24724673
0.033726234 -0.022305097 0.24510002
0.032231532 -0.016995881 0.24619228
0.0075423699 -0.045741279 0.25085714
0.012418465 -0.0463847 0.25196826
0.016049631 -0.04576724 0.2511667
0.0077903722 -0.042356092 0.25114927
0.012459417 -0.042218514 0.25232399
0.015830206 -0.042274021 0.25080001
0.0043703909 -0.036185872 0.25040001
0.0073223314 -0.037856888 0.25197506
0.012167386 -0.039187953 0.25380003
0.01584979 -0.037747446 0.25214818
0.0038298268 -0.033039976 0.25022578
0.0059142988 -0.033793226 0.25235716
0.017883711 -0.032516699 0.25224391
0.0088195112 -0.036048558 0.2556667
0.012377432 -0.036892291 0.25585321
0.015584475 -0.035762202 0.2552
0.0081678629 -0.033676956 0.25567862
0.012327501 -0.033533379 0.25701749
0.01584433 -0.033232741 0.25589475
0.013179838 -0.032219674 0.26000002
