# .PCD v0.7 - Point Cloud Data file format
VERSION 0.7
FIELDS x y z
SIZE 4 4 4
TYPE F F F
COUNT 1 1 1
WIDTH 203
HEIGHT 1
VIEWPOINT 0 0 0 1 0 0 0
POINTS 203
DATA ascii
0.0005744673 0.0244097 0.14517647
-0.00025604363 0.027505886 0.149
0.00043918207 0.026330296 0.14710002
-0.0067193592 0.014250625 0.15316132
-0.0034147557 0.014478736 0.15354173
-0.0061761956 0.016736835 0.15350001
-0.0039168247 0.016360102 0.15345158
-0.00057303102 0.028823545 0.15018182
0.0003264492 0.028184826 0.15000001
-0.012454193 0.013666213 0.15861696
-0.0090083703 0.014001232 0.15559375
-0.0013748533 0.013667954 0.15755384
0.00033668414 0.014391615 0.15850002
-0.011484649 0.016130691 0.15825638
-0.0083496021 0.017785495 0.15635946
-0.0024865274 0.017716022 0.1565648
0.00043398884 0.016518138 0.15816666
-0.0070001851 0.022050317 0.1582555
-0.003781619 0.022362217 0.15802863
-0.0057195742 0.025414035 0.15900002
-0.0043996684 0.025427926 0.15900002
0.0012206259 0.029615961 0.15800002
0.00082457712 0.030859398 0.15776925
-0.029155137 0.0097251013 0.16361539
-0.021088332 0.009852834 0.16266666
0.0020243432 0.0088080959 0.16257897
-0.030345485 0.010322066 0.162
-0.027625166 0.012292224 0.16201659
-0.022679092 0.012485002 0.16190177
-0.01748893 0.012642129 0.16110738
-0.013741877 0.012416658 0.16020001
-0.00055046339 0.011500999 0.16068752
0.0014442715 0.012279707 0.1616917
-0.027916742 0.016848216 0.16335291
-0.023244577 0.017141661 0.16287197
-0.016757665 0.017202338 0.16240461
-0.012812333 0.017773371 0.16056459
-0.0012231737 0.018581757 0.16179413
0.0015324508 0.017723139 0.16204163
-0.027988801 0.022210134 0.16360611
-0.023908734 0.021585545 0.1634286
-0.016157297 0.020890133 0.1633056
-0.012141359 0.02223911 0.16313282
-0.0084196245 0.023698501 0.16042855
-0.0016737949 0.022336874 0.16189066
0.0013346603 0.022117831 0.16314286
-0.028518934 0.025617063 0.16400002
-0.011746339 0.025997417 0.16400002
-0.0073690186 0.02749864 0.16198756
-0.0029347034 0.027575608 0.16147879
0.0011810638 0.027261546 0.162
-0.0068248976 0.031533923 0.16376269
-0.003296125 0.031956993 0.1636861
0.0018975274 0.030913398 0.16087499
-0.027944174 0.008582524 0.16667104
0.0041382117 0.008515357 0.16549996
0.0077691879 0.0078795198 0.16679512
0.010661547 0.0079102851 0.16875003
-0.027228128 0.013298456 0.16525
-0.022429636 0.014319576 0.16500001
-0.01931534 0.014838626 0.16500001
0.003987127 0.012417263 0.16636251
0.00739105 0.011644357 0.16827039
0.010578513 0.01047273 0.16900001
-0.02715298 0.017927086 0.16575824
-0.021672446 0.017592466 0.16598612
-0.019159542 0.017688312 0.16613039
0.0034331006 0.017159151 0.16702704
-0.027254164 0.022138713 0.16698994
-0.022603087 0.022536192 0.16643253
-0.017760767 0.022871874 0.16743499
-0.014082415 0.023611937 0.16549999
-0.00071147701 0.023488965 0.16633335
0.0024289074 0.022853175 0.16617285
-0.028033741 0.027158324 0.16721314
-0.022847066 0.027101493 0.16805401
-0.016396562 0.026580177 0.16841669
-0.012699898 0.028037559 0.16680491
-0.009229172 0.029106557 0.16611111
-0.0011585534 0.026229374 0.1671714
0.0023503096 0.026477272 0.16691999
-0.027905229 0.030856626 0.16881821
-0.022973387 0.030172661 0.16900001
-0.011951797 0.031751625 0.16835552
-0.0071974881 0.032828815 0.16609412
-0.0024065648 0.03441352 0.1663871
0.0021190667 0.032762337 0.16704547
-0.026017254 0.0045308862 0.17222223
0.0094777672 0.0022926859 0.17382045
0.011760315 0.0034015188 0.17230476
-0.026255263 0.0076077823 0.17188415
-0.023975248 0.0087560415 0.17386669
0.0093466686 0.0052171457 0.17214288
0.012500782 0.0074830428 0.17227961
-0.024605565 0.010115921 0.17300002
0.0077376286 0.014062607 0.17019354
0.011491592 0.012342632 0.17215291
-0.021368271 0.01939082 0.17033334
0.0045056711 0.018456364 0.17016669
0.0073797074 0.017386219 0.17166488
0.010636298 0.016374633 0.17332001
-0.026577687 0.023869779 0.17048001
-0.021390306 0.022597222 0.17140001
-0.019900655 0.024736028 0.17
0.0043544387 0.022560718 0.1711282
0.0059589045 0.021509517 0.17308328
-0.026748216 0.027724544 0.17173114
-0.021789834 0.027604064 0.17243747
-0.018260252 0.028106572 0.17159744
0.003396376 0.027868422 0.17171423
0.0051448662 0.02988803 0.17300001
-0.027509449 0.032480124 0.17186317
-0.022449605 0.032201704 0.17303567
-0.012823036 0.033388205 0.17095716
-0.027242055 -0.00081849773 0.17899998
0.0029164536 -0.00054012449 0.17827904
0.0064842487 -0.00038472452 0.17666671
-0.025866946 0.0028586988 0.17690003
-0.023290098 0.0033677728 0.17755136
0.0035154158 0.0015439376 0.17827146
0.0071659796 0.0025339271 0.17612597
-0.025290633 0.0065274485 0.17534783
-0.023623874 0.0066539198 0.17724329
0.0066717705 0.0056280871 0.17782758
0.01300932 0.01315841 0.17503706
0.0099754026 0.019774986 0.17500001
0.012005997 0.017624471 0.17641896
0.0080752075 0.022819007 0.17613666
0.011119143 0.022316223 0.17736006
-0.025819916 0.029477136 0.17522222
-0.020859173 0.028968053 0.17523532
0.0044981819 0.028319785 0.1752353
0.0072822557 0.027244782 0.17718801
0.010709758 0.026975343 0.17899993
-0.026435325 -0.0022116234 0.18101493
-0.024773503 -0.00014099805 0.18225002
0.0017076407 -0.0025079458 0.18250003
-0.025962016 0.001139224 0.18034786
-0.023102384 0.0022173955 0.18075614
0.0027283237 0.0036923294 0.18071021
0.005514822 0.0043775346 0.18000001
-0.022107059 0.0077182557 0.18180004
0.0030833574 0.0060552345 0.18137734
0.0053530401 0.0052403696 0.18000001
-0.021613311 0.010316875 0.18300001
0.013249107 0.019196043 0.1806
0.013012113 0.022768153 0.18120003
-0.0255468 -0.0051306896 0.1865
-0.023067234 -0.0052751675 0.18700002
-0.01572752 -0.0051169344 0.186
-0.011808264 -0.0057339487 0.18645449
-0.0085545955 -0.0066431649 0.18841821
0.00086900458 -0.0062545342 0.18802942
-0.025459101 -0.0031517567 0.18641663
-0.022446342 -0.0023730737 0.1869369
-0.017523507 -0.0024157809 0.18671878
-0.01259125 -0.0024886213 0.18691884
-0.0089597441 -0.003543454 0.18880962
0.00099720643 -0.0044855066 0.18592307
-0.021242091 0.0017848578 0.18804915
-0.016846683 0.0013176681 0.18874082
-0.013349732 0.0014237941 0.18831253
-0.021235894 0.0079542818 0.18588889
-0.021656595 0.010041651 0.185
-0.0086435759 0.013873262 0.18731251
-0.002950697 0.013231503 0.18900001
-0.0080538942 0.015411512 0.18900001
-0.0027315719 -0.010061199 0.19100003
-0.0061135194 -0.0071661719 0.19001481
-0.0026078331 -0.0073482613 0.19041303
0.0011345288 -0.006820824 0.19000003
-0.010483191 -0.00075612694 0.19033335
-0.0070528379 -0.0020800282 0.19171666
-0.0025716089 -0.002647423 0.19326773
7.3099705e-05 -4.7709989e-05 0.193
-0.020363446 0.0038807299 0.19000003
-0.01797292 0.0033158292 0.19023393
-0.011991277 0.0033328217 0.19108792
-0.0080772154 0.0021413539 0.19281428
-0.0011470736 0.00046060627 0.19400001
7.3478463e-05 0.00076574448 0.19400001
-0.020609703 0.0078704879 0.19175676
-0.017551763 0.0073792171 0.1924324
-0.012477258 0.0074476027 0.19309637
-0.0090887994 0.0073241787 0.19400005
-0.00094364822 0.0097164614 0.19400001
-0.020673709 0.010797517 0.19272225
-0.017312443 0.011086347 0.19311586
-0.012470599 0.012069274 0.19340165
-0.0074529471 0.012411769 0.19205458
-0.0030731729 0.012179073 0.19152723
-0.011114914 0.015005522 0.19400001
-0.0074175992 0.015505128 0.19085716
-0.0024966719 -0.00072004751 0.19500001
-0.0061761546 0.0037447759 0.19547509
-0.0026881639 0.0027670267 0.1965808
7.4299096e-05 0.0026274952 0.19616669
-0.0071473457 0.0075471108 0.19593148
-0.0026742292 0.0075730905 0.1981999
0.00028115427 0.0083139576 0.19691668
-0.011240366 0.013583395 0.19500002
-0.0058935331 0.011032776 0.19539134
-0.0040032519 0.01102412 0.19582148
