# .PCD v0.7 - Point Cloud Data file format
VERSION 0.7
FIELDS x y z
SIZE 4 4 4
TYPE F F F
COUNT 1 1 1
WIDTH 212
HEIGHT 1
VIEWPOINT 0 0 0 1 0 0 0
POINTS 212
DATA ascii
-0.032068368 0.0198278 0.148
-0.026085986 0.019515932 0.14624999
-0.024941811 0.019961771 0.149
-0.031167129 0.022053497 0.14645287
-0.02736997 0.022487031 0.14632177
-0.024500336 0.022533165 0.14819671
-0.030501552 0.027338557 0.14814579
-0.027438179 0.026771121 0.14842375
-0.024802934 0.025829418 0.149
-0.030253939 0.030273551 0.149
-0.02974616 0.030781331 0.149
-0.037006963 0.01766471 0.15296464
-0.033962104 0.019079834 0.15157448
-0.025627017 0.019491373 0.1505
-0.022632945 0.018293602 0.15204646
-0.018332722 0.01791068 0.15289877
-0.035720594 0.021373205 0.15307891
-0.033904381 0.022633662 0.15181999
-0.022870749 0.022452604 0.15182695
-0.018046364 0.022320146 0.15269901
-0.032331597 0.026878564 0.15131429
-0.027892306 0.02834608 0.15064338
-0.023618717 0.027655348 0.15237233
-0.01781744 0.027546505 0.15309334
-0.030563194 0.032923348 0.15226318
-0.027718548 0.032179639 0.15239052
-0.024233259 0.030897431 0.15334618
-0.017572222 0.032619949 0.15238577
-0.028705122 0.037438743 0.15332723
-0.018236261 0.036081474 0.15286669
-0.028842501 0.040913913 0.15338467
-0.050811727 0.014620401 0.15854546
-0.049965821 0.014918877 0.15850002
-0.020582708 0.01477623 0.15583335
-0.016987912 0.014144094 0.15619999
-0.012679025 0.013429523 0.15804277
-0.0097348653 0.012798514 0.15900001
-0.050546762 0.017353792 0.15797298
-0.04735174 0.017317073 0.15646502
-0.042626254 0.017572656 0.15575528
-0.039115246 0.018490301 0.15533338
-0.020744199 0.017600667 0.15622076
-0.016890215 0.017229093 0.15700012
-0.013787344 0.016602365 0.15831175
-0.050290693 0.020301137 0.15900001
-0.046208803 0.021983039 0.15784462
-0.042777054 0.022050004 0.15797076
-0.038076799 0.0227868 0.15728824
-0.034722827 0.024828866 0.155
-0.020881755 0.022598427 0.15682019
-0.017594563 0.022425272 0.15700002
-0.043821767 0.025369575 0.15900002
-0.035935264 0.026678309 0.15777777
-0.034391902 0.027717264 0.15632354
-0.021354781 0.027422322 0.15713236
-0.017558003 0.027308628 0.15695894
-0.033368722 0.031855747 0.15811999
-0.026580129 0.034039494 0.15586051
-0.022769812 0.032369487 0.15740855
-0.017274577 0.031998236 0.15655388
-0.030844357 0.037007011 0.15666671
-0.026998118 0.03747033 0.15650563
-0.024012048 0.03614866 0.15837499
-0.030039474 0.041052528 0.156
-0.050589379 0.013251405 0.16100003
-0.048668653 0.013329388 0.16305822
-0.010887925 0.012812877 0.16114286
-0.0088100443 0.012623514 0.16182089
-0.05027144 0.019757725 0.16000001
-0.048632395 0.015972435 0.16134486
-0.015310057 0.01959542 0.16050002
-0.011798116 0.017926859 0.16123077
-0.0089569669 0.017113615 0.16286841
-0.050449293 0.022451833 0.16127588
-0.048931137 0.02292636 0.16132396
-0.041292895 0.024018733 0.16031916
-0.039533939 0.02479093 0.16000001
-0.01594113 0.023003528 0.16115481
-0.012847421 0.021955069 0.16233331
-0.050199926 0.026394352 0.16262501
-0.047127992 0.02696785 0.16204204
-0.042600032 0.027328867 0.16166086
-0.038092807 0.027599435 0.16108331
-0.020249227 0.028447406 0.16022223
-0.015996696 0.027480859 0.16224687
-0.01388891 0.026004463 0.16388892
-0.045685478 0.031226387 0.16331434
-0.043871876 0.032330666 0.16375893
-0.036885284 0.031994138 0.16284208
-0.034339178 0.033185709 0.16076669
-0.021084798 0.033491377 0.16113211
-0.016664188 0.032294188 0.16200003
-0.043617707 0.0350409 0.164
-0.035856094 0.035750374 0.16368425
-0.034127686 0.036583945 0.16345166
-0.025199566 0.039366525 0.16060002
-0.022234147 0.037778929 0.16207305
-0.019788593 0.037573542 0.16133335
-0.046143819 0.0093667991 0.16591999
-0.015763171 0.0077225086 0.16863644
-0.012594835 0.0083354888 0.16622233
-0.0095029185 0.0091242744 0.16527997
-0.050285276 0.011378298 0.16500001
-0.046707194 0.012307736 0.1665609
-0.01530902 0.010945291 0.16900001
-0.012988492 0.011012294 0.16726984
-0.0087206699 0.010879788 0.16533333
-0.046156019 0.015371121 0.16686957
-0.044459064 0.016037341 0.16850002
-0.0079404274 0.018786013 0.16624999
-0.011425681 0.023701105 0.16519997
-0.0086044017 0.022279283 0.16699171
-0.050305754 0.028942406 0.16583335
-0.049390264 0.028477132 0.16631034
-0.041214276 0.029240184 0.16499999
-0.015278293 0.029602697 0.16500001
-0.012317402 0.027600586 0.16624729
-0.0092775198 0.027345406 0.16848005
-0.050578598 0.031167233 0.16850001
-0.049096368 0.03186525 0.16841179
-0.041808367 0.032702167 0.1664691
-0.038790252 0.03352166 0.1659143
-0.015591379 0.032645807 0.1662222
-0.01293694 0.031607673 0.16801742
-0.0095644407 0.030645221 0.16900001
-0.04679396 0.0046727187 0.17300002
-0.044121873 0.0042998167 0.17369233
-0.017631706 0.0032391795 0.17335594
-0.046029065 0.0072496515 0.17183529
-0.044335943 0.0076383506 0.17250769
-0.017004091 0.0066112997 0.17198507
-0.014717288 0.006136111 0.17333335
-0.045440413 0.012707266 0.17147917
-0.044158027 0.012327365 0.1721964
-0.015952488 0.011369633 0.17120001
-0.045197632 0.015351919 0.1707143
-0.043921608 0.015814615 0.17142858
-0.0071826214 0.024294445 0.17084616
-0.0077203093 0.027625775 0.17184421
-0.050755892 0.033645049 0.17054546
-0.048954092 0.03370019 0.17023081
-0.046668649 -0.00041964243 0.17900001
-0.031104948 -9.7294665e-05 0.17785715
-0.029532462 -4.4166762e-05 0.17866668
-0.047216363 0.0027195839 0.17846152
-0.044129722 0.0038942497 0.17611112
-0.037051961 0.0011923402 0.17899998
-0.032315288 0.0016679106 0.17887494
-0.029763442 0.0014573238 0.17899999
-0.017978104 0.0011800883 0.17500001
-0.046352893 0.0051142126 0.17566669
-0.043869432 0.0077291415 0.17623816
-0.017549932 0.009682361 0.17500001
-0.044193484 0.012792657 0.17727777
-0.01710983 0.012073688 0.17569236
-0.044090286 0.015852978 0.17811112
-0.030339047 0.019851593 0.17900001
-0.02846208 0.019851593 0.17900001
-0.030622691 0.020428507 0.17822224
-0.029879957 0.020731479 0.1785
-0.04576797 -0.0002849981 0.18036366
-0.042900607 -0.00013411646 0.18123528
-0.039057028 -4.4558165e-05 0.18025
-0.026907306 -0.00064381363 0.18065123
-0.022611927 -0.0013700589 0.1821962
-0.019306436 -0.00054404093 0.18169233
-0.045811329 0.0015360904 0.18050006
-0.042519912 0.0026502269 0.18153605
-0.037639044 0.002832341 0.18083575
-0.03261191 0.003717972 0.18025003
-0.027343143 0.0027219064 0.18157448
-0.022950027 0.0016879195 0.18343614
-0.019209728 0.00052432955 0.18083334
-0.042859212 0.0069626765 0.18291889
-0.037622578 0.0070681754 0.18346936
-0.032347519 0.0073627098 0.18217987
-0.028260691 0.0069667683 0.18319046
-0.043736223 0.012214147 0.18150748
-0.037360571 0.010373251 0.18400002
-0.031037187 0.010641624 0.18336843
-0.029488642 0.010681953 0.18400002
-0.043718953 0.016030338 0.1806667
-0.035045296 0.018862592 0.18400002
-0.031177163 0.018847197 0.18237506
-0.028646555 0.018708989 0.18254723
-0.031432297 0.020126754 0.18150002
-0.029510716 0.020367712 0.18025
-0.036787663 0.0049979594 0.185
-0.022473825 0.003852302 0.1852414
-0.041824244 0.0086227786 0.18562292
-0.037447263 0.0086706812 0.18560869
-0.033385415 0.0092358543 0.18499999
-0.026491689 0.0083841663 0.18634218
-0.022681886 0.0076292399 0.18727468
-0.042104352 0.01266743 0.18773903
-0.037364572 0.012547683 0.18671726
-0.032678921 0.012825888 0.1860375
-0.027425271 0.012556444 0.18702956
-0.02287128 0.012725388 0.18861447
-0.019705772 0.013791794 0.18700002
-0.042134166 0.017045939 0.18704885
-0.037318114 0.017134525 0.18672104
-0.032754369 0.017124666 0.18584757
-0.027747549 0.01631612 0.18615663
-0.023458816 0.015348249 0.18782611
-0.035379212 0.020919545 0.18719999
-0.033984002 0.020472512 0.18599999
-0.022215018 0.012378121 0.19016869
-0.040784694 0.019580191 0.19100003
-0.039402973 0.019691162 0.19077778
-0.041803535 0.020085361 0.192
-0.039182454 0.020381309 0.19100003
