# .PCD v0.7 - Point Cloud Data file format
VERSION 0.7
FIELDS x y z
SIZE 4 4 4
TYPE F F F
COUNT 1 1 1
WIDTH 222
HEIGHT 1
VIEWPOINT 0 0 0 1 0 0 0
POINTS 222
DATA ascii
-0.020450974 0.027557995 0.13400005
-0.017639656 0.028165417 0.13345419
-0.013303388 0.028494582 0.13243587
-0.016819492 0.031053571 0.13351917
-0.014132053 0.03161823 0.13346146
-0.03536538 0.024743691 0.13900001
-0.032260012 0.02410583 0.13797012
-0.028064564 0.024540663 0.13842857
-0.010392998 0.024549354 0.13900001
-0.036526311 0.026253076 0.13891889
-0.032526899 0.027256146 0.13846172
-0.027712155 0.026351202 0.13873233
-0.022527035 0.027314266 0.13677053
-0.019200873 0.028448278 0.13500001
-0.011104004 0.027409939 0.13675778
-0.0098585701 0.025180951 0.13900001
-0.03347059 0.030282315 0.13900001
-0.021105925 0.032269534 0.13669726
-0.017847395 0.032889199 0.13618942
-0.012544315 0.032683108 0.13657765
-0.020429712 0.036029074 0.13860002
-0.018022023 0.037042692 0.13754138
-0.013509258 0.037385989 0.13790582
-0.0087994067 0.0388554 0.13778949
-0.018066099 0.040443469 0.1387143
-0.013356647 0.040326037 0.13900003
-0.0089031495 0.040532354 0.13850002
-0.040309191 0.023793884 0.14164707
-0.039184477 0.023613939 0.14247695
-0.032826912 0.022910798 0.14055003
-0.026917249 0.024580607 0.14040001
-0.010285582 0.023749406 0.14114287
-0.0082674436 0.023096474 0.1432755
-0.04031194 0.025608864 0.14075001
-0.037987109 0.027436094 0.14111182
-0.031751633 0.029579015 0.14007698
-0.027392128 0.028407117 0.14055949
-0.024276925 0.029521501 0.14
-0.01700802 0.028427182 0.14400001
-0.010249205 0.028405637 0.14054549
-0.0083342334 0.027377253 0.14243367
-0.037223026 0.031760033 0.14302453
-0.032223754 0.032442622 0.14138186
-0.027497435 0.032214489 0.14198677
-0.023847975 0.032559261 0.14127633
-0.010718076 0.032404024 0.14108108
-0.0076200785 0.032965995 0.14324446
-0.032272659 0.036427058 0.14368741
-0.027055653 0.036014337 0.1437455
-0.022281155 0.037166916 0.14256182
-0.016704282 0.038475528 0.14065167
-0.011881839 0.037803784 0.1415412
-0.0074382746 0.037092216 0.1422462
-0.020437347 0.041630168 0.14254546
-0.017220233 0.042719841 0.14211054
-0.012578823 0.042577472 0.1422542
-0.0088566253 0.042672563 0.14210001
-0.017217984 0.046962801 0.14312322
-0.0128187 0.046243377 0.1439063
-0.0092699174 0.046904013 0.14314713
-0.037093736 0.019753452 0.149
-0.0052759876 0.01961142 0.14525001
-0.0021404529 0.018994208 0.14765303
0.00013455401 0.018086901 0.149
-0.03810101 0.022972265 0.14722094
-0.0059959805 0.022317283 0.14538012
-0.0030923719 0.022255713 0.14760226
-0.037591942 0.02519553 0.1462
-0.016174173 0.028723147 0.14657143
-0.014463971 0.029419264 0.14633334
-0.0064036134 0.027723135 0.14637506
-0.0041834884 0.026552526 0.14851663
-0.037513036 0.034172095 0.14503229
-0.02712114 0.034525007 0.14524999
-0.0061090854 0.03229269 0.14646755
-0.03720884 0.037237938 0.14668179
-0.03219128 0.038598649 0.14555134
-0.02776894 0.037918132 0.146235
-0.023771999 0.038508724 0.14559649
-0.010807736 0.038554117 0.14658177
-0.007251956 0.037391759 0.14678124
-0.038456488 0.040468156 0.149
-0.032220107 0.041958489 0.14786859
-0.027464658 0.041840583 0.14800002
-0.023092721 0.042316191 0.14758196
-0.01071892 0.043161929 0.14571737
-0.0077426913 0.042462733 0.14632003
-0.0020342087 0.014219447 0.15399992
0.00037733809 0.014745061 0.15325001
-0.036356766 0.018436296 0.1524615
-0.034783691 0.019366002 0.15361542
-0.0015629596 0.016409488 0.15319513
0.0010494024 0.017431308 0.15187381
-0.036407918 0.022187963 0.15159696
-0.034549445 0.021727594 0.15368885
-0.0008904711 0.023395436 0.15087275
0.0009444835 0.022497479 0.15161234
-0.03706307 0.025128949 0.15000001
-0.034131467 0.025378412 0.15380001
-0.015484986 0.029156391 0.15022223
-0.014592292 0.029578844 0.15120001
-0.0052909665 0.029690292 0.15000001
-0.0020558161 0.02786574 0.15174088
0.00049127691 0.026895991 0.15377142
-0.015200087 0.030162156 0.15000001
-0.014688125 0.030085094 0.15066668
-0.0052017253 0.032730471 0.15167861
-0.0032015631 0.031688858 0.15326422
-0.037272789 0.03980913 0.15000001
-0.010638746 0.038183823 0.15000001
-0.005191986 0.037138931 0.15173081
-0.0046792082 0.037977047 0.15288892
-0.03718413 0.042860772 0.15148053
-0.031871133 0.044251975 0.1504546
-0.028056914 0.044240031 0.15042375
-0.024102565 0.044167042 0.15000004
-0.0065412712 0.042627122 0.15241507
-0.004373569 0.041937742 0.15338893
-0.040488005 0.01445172 0.15836366
-0.039758839 0.014823414 0.15866667
-0.010687977 0.01325423 0.15899998
-0.0076286364 0.01340453 0.15738736
-0.0042404793 0.013734692 0.15597145
-0.040274326 0.015106943 0.15700001
-0.038031589 0.016907625 0.15693103
-0.033574831 0.019103369 0.15703848
-0.0065419315 0.016933719 0.15812005
-0.0038309095 0.017497689 0.15632293
-0.036456488 0.022499261 0.155
-0.033500157 0.022568623 0.15729272
-0.006120841 0.02059691 0.15871429
-0.035285451 0.025302885 0.15900001
-0.033208508 0.025694838 0.15738708
-0.016445542 0.029804459 0.15900001
0.0012120516 0.028203186 0.15596005
-0.0018258061 0.033492614 0.15563735
0.00061837933 0.031989943 0.15716669
-0.0027891609 0.037275068 0.15684108
6.0222039e-05 0.035306383 0.15900001
-0.03715568 0.0097896624 0.16380773
-0.032843318 0.0098273829 0.16395003
-0.027873797 0.0098527269 0.16353849
-0.012034987 0.009522236 0.16315003
-0.040825892 0.012354163 0.16198592
-0.038144711 0.011962373 0.16322617
-0.032287735 0.011471638 0.16397226
-0.028275404 0.011322856 0.16362491
-0.011214742 0.011355409 0.16136585
-0.0093347132 0.011816444 0.16000001
-0.037240162 0.016821086 0.16137502
-0.033645578 0.018854406 0.16055557
-0.010628941 0.016792385 0.16291432
-0.0083304206 0.018048441 0.16073629
-0.033027299 0.023278404 0.1614342
-0.010255952 0.020251667 0.164
-0.0082833758 0.02096745 0.16212505
-0.035191812 0.025323931 0.16040002
-0.032715019 0.025905954 0.161697
-0.016535031 0.029160462 0.1629546
-0.014433051 0.029767608 0.163
-0.015595414 0.030290781 0.16160001
-0.014787699 0.030202707 0.16239999
0.0014246632 0.033509441 0.16100001
-0.00068469305 0.038445972 0.1603125
0.00081236981 0.037352446 0.16213337
-0.025703637 0.0096215149 0.16500001
-0.022048967 0.0085741067 0.16669178
-0.019159339 0.0073610647 0.1688572
-0.013144241 0.0083282953 0.16725641
-0.037046939 0.013623189 0.16564959
-0.032677367 0.013807873 0.16555957
-0.027006665 0.013174444 0.16569872
-0.023273593 0.012286196 0.16708702
-0.012895151 0.010465534 0.16700001
-0.037060577 0.016505266 0.16604865
-0.032435495 0.017429208 0.16732013
-0.027748279 0.016998516 0.16787049
-0.023665415 0.016148664 0.16898043
-0.011126783 0.018218368 0.16543749
-0.032379523 0.021642368 0.16808957
-0.010870595 0.022128534 0.16779077
-0.0097139366 0.022131685 0.1665
-0.031583548 0.027511938 0.16763335
-0.028803552 0.029393062 0.16890001
-0.022379156 0.028649695 0.16731955
-0.017221095 0.027994188 0.16677557
-0.014274861 0.028160281 0.16669388
-0.021866161 0.030909171 0.16714814
-0.019340094 0.030436724 0.16855557
-0.016513728 0.0049492382 0.17
-0.017013907 0.0077693039 0.17027964
-0.014702865 0.0080654752 0.17030771
-0.021052184 0.012841986 0.1709079
-0.018033227 0.012136355 0.17228988
-0.014081785 0.012140367 0.17176467
-0.026502902 0.018826399 0.17045458
-0.022122577 0.017710585 0.17159267
-0.01912006 0.016078072 0.17367738
-0.013353091 0.016316438 0.1731579
-0.031157264 0.022982594 0.17038958
-0.027386393 0.022420794 0.1708864
-0.022821994 0.022663668 0.17260137
-0.016801171 0.024489984 0.17323531
-0.013215094 0.023624012 0.17242025
-0.031123416 0.026783733 0.17059486
-0.027494676 0.027440526 0.17119303
-0.022291146 0.026552871 0.17189148
-0.017944006 0.026335115 0.17223154
-0.013671678 0.026090052 0.17062499
-0.026647415 0.030909991 0.17156816
-0.023205191 0.031336702 0.17066668
-0.019900655 0.030975105 0.17
-0.016592005 0.013903971 0.17571802
-0.014540495 0.014306619 0.175
-0.020506358 0.018918643 0.17499998
-0.017181374 0.01769761 0.17624684
-0.01403877 0.017950272 0.17622453
-0.020574046 0.021967793 0.17516224
-0.017575955 0.022409812 0.17659116
-0.013871459 0.021636225 0.17669651
-0.020118963 0.02638107 0.17500001
-0.017549932 0.025280057 0.17500001
