# .PCD v0.7 - Point Cloud Data file format
VERSION 0.7
FIELDS x y z
SIZE 4 4 4
TYPE F F F
COUNT 1 1 1
WIDTH 212
HEIGHT 1
VIEWPOINT 0 0 0 1 0 0 0
POINTS 212
DATA ascii
0.0095672961 0.019895898 0.14400001
0.010624271 0.019593908 0.14400004
-0.01644136 0.022982728 0.14347816
-0.012857805 0.022757266 0.14353363
-0.0097602075 0.021556856 0.14400001
0.0086596236 0.021633195 0.14400004
0.012692474 0.020916302 0.14352949
-0.016967511 0.026620751 0.14400004
-0.012438402 0.025538391 0.14400002
-0.016857024 0.030465631 0.14400002
-0.018156378 0.019474613 0.14866668
-0.0053880182 0.019491816 0.14600001
-0.0024372679 0.019250907 0.14612117
0.0022951767 0.019590313 0.1452941
0.0098390933 0.019839849 0.14733334
0.011151484 0.018547889 0.14796768
-0.017055834 0.021082727 0.14626411
-0.011365529 0.022972111 0.14519405
-0.0074619339 0.022576483 0.14583199
-0.0025931732 0.022454327 0.14715058
0.0024902585 0.022409394 0.14579488
0.0068450226 0.022743804 0.14631802
0.011775284 0.022529289 0.14708647
-0.015925519 0.027746081 0.14601062
-0.012491443 0.027534373 0.14683335
-0.0074097603 0.027261224 0.14784625
-0.0031218159 0.027319167 0.14817308
0.0022922333 0.027110968 0.14775001
0.0072552399 0.027298141 0.14834359
0.010729485 0.026770944 0.14842859
-0.015966762 0.032449607 0.14670646
-0.011681708 0.030538466 0.14852633
-0.0054982016 0.030357907 0.1488
-0.0023817276 0.031687777 0.14885715
0.002639587 0.031065166 0.14900002
-0.015822418 0.036827665 0.14813727
0.0095319375 0.014387658 0.15400003
0.010328582 0.014689091 0.15400003
-0.017498394 0.01800663 0.15248121
-0.01439107 0.019030621 0.1517273
0.009743385 0.016824089 0.15342107
0.011117334 0.016976627 0.15194367
-0.017019538 0.020757984 0.1518696
-0.013729554 0.021042222 0.15189286
0.012811145 0.023725092 0.15040481
0.015288193 0.024109971 0.15183336
-0.010261255 0.029438633 0.14999999
-0.0082479753 0.029658837 0.15000001
-0.00098407478 0.028041795 0.15067929
0.002821116 0.028440239 0.15070969
0.0081373127 0.028062925 0.15111114
0.011741233 0.027743567 0.1514167
-0.015134513 0.03245962 0.15017648
-0.012633854 0.032868769 0.15202227
-0.0075684502 0.032698762 0.15253253
-0.0024292658 0.032679733 0.15172085
0.0029524572 0.032501366 0.15227628
0.007979339 0.032328412 0.15256201
0.010778694 0.032008629 0.1535714
-0.015557938 0.037783027 0.15064287
-0.0126372 0.037054371 0.15258439
-0.0079189092 0.036852211 0.15318668
-0.0026257408 0.036671896 0.15249564
0.0036228048 0.036973335 0.15306994
0.0073218429 0.035832707 0.15376472
-0.015935658 0.042110775 0.15209594
-0.01422764 0.042129237 0.15317911
-0.0088296235 0.040227257 0.15360002
-0.0041754078 0.041094922 0.15333335
0.0042292173 0.040070534 0.15300001
-0.025487758 0.012590621 0.15828571
-0.021709004 0.013721194 0.15831913
-0.018881271 0.01415409 0.15770271
0.0095104035 0.013433187 0.15574998
0.010793337 0.013299678 0.15797673
-0.025448686 0.015299389 0.15900001
-0.021427071 0.017050752 0.15855554
-0.017735343 0.016321717 0.15627536
-0.014261208 0.018078741 0.15705885
0.0096111298 0.018164484 0.15623076
0.011706832 0.016510047 0.15661539
-0.02454837 0.020701278 0.15900002
-0.013358093 0.02074708 0.15733334
0.0089478996 0.020999532 0.15835294
0.010050563 0.020439921 0.1575
0.0098105399 0.029867314 0.155
-0.01239151 0.034170963 0.1559231
-0.0090430034 0.033442989 0.155
0.00094629748 0.033467911 0.15576196
0.0063188071 0.033684134 0.15592863
0.01190551 0.032865841 0.15596299
-0.012727819 0.038501039 0.15521674
-0.0075806431 0.037795015 0.15632823
-0.0026599285 0.038701359 0.15575679
0.0015392903 0.037843917 0.15670834
0.0075012413 0.037697338 0.1565001
0.011499314 0.037495933 0.15807867
-0.025629148 0.0098932143 0.16333334
-0.024796858 0.0099033099 0.16350001
0.014100694 0.0092176655 0.1628
0.015378265 0.0086476235 0.16369234
-0.025647916 0.011548097 0.16088001
-0.023456063 0.012677726 0.16130073
-0.017553173 0.013728643 0.16188896
0.0093216961 0.013248111 0.16000001
0.012479353 0.011758257 0.16161627
0.015195283 0.011653272 0.164
-0.02532435 0.017549101 0.16123077
-0.02314222 0.017551675 0.16156168
-0.016710801 0.015948933 0.16240005
-0.013373118 0.017750856 0.16259094
0.012586624 0.015421208 0.16249999
-0.02525028 0.021576364 0.16180001
-0.023464883 0.021951796 0.16308479
-0.012848279 0.021346254 0.16230004
0.0078219417 0.038431227 0.16027275
0.012321539 0.038006123 0.16079491
0.0090364683 0.0039967634 0.16900004
0.01248643 0.0041712672 0.16897215
0.015304132 0.0043884926 0.16900001
-0.026159674 0.0089538796 0.16608688
-0.02269097 0.0081102848 0.16739124
-0.017540555 0.0069913892 0.16879584
0.0094167991 0.0057864892 0.16899998
0.012995215 0.0067306738 0.16884346
0.016355162 0.0078461766 0.16711472
-0.027091261 0.010054736 0.16600001
-0.022619041 0.011046341 0.16706668
-0.016740087 0.013617751 0.16702853
0.014201102 0.013167377 0.16644734
0.016236112 0.011276978 0.16670367
-0.015399861 0.015585292 0.16730772
-0.013174645 0.017590828 0.16634612
0.013291812 0.01527529 0.16600001
-0.025197897 0.024354532 0.16500001
-0.022458168 0.023509951 0.16502436
-0.01224295 0.02109402 0.16592591
-0.025072107 0.025720591 0.16600001
-0.02313515 0.027561288 0.16684924
-0.022785958 0.031046258 0.16861768
-0.012671979 0.0036460743 0.17311901
0.0027022611 0.0039774994 0.17106099
0.0063691381 0.0039735027 0.17000005
0.016217142 0.0046053808 0.17045455
-0.020887025 0.0090135531 0.17000003
-0.017232178 0.0089241555 0.17040743
-0.013580845 0.0070523322 0.17283046
0.0028472338 0.007352002 0.17198658
0.0073103006 0.0076841945 0.17079885
0.011527556 0.0086962543 0.17040785
0.017213538 0.0065567899 0.17035004
-0.020980943 0.011580478 0.17022227
-0.017267998 0.011927868 0.17124614
-0.014137118 0.012413881 0.17303175
0.0035163381 0.011045653 0.17339213
0.007715723 0.011649017 0.17304584
0.010826671 0.01114331 0.17127587
0.016772175 0.011819375 0.17076926
-0.015084798 0.015107431 0.17200001
-0.012478384 0.017204955 0.17217241
-0.011183561 0.021762757 0.17194998
-0.0093675405 0.022813581 0.17300001
0.0087276166 0.022200594 0.17300002
-0.025477607 0.031339027 0.17400001
-0.022322364 0.033243004 0.1708889
-0.010011572 -4.4001958e-05 0.178
-0.0073798667 -0.00037239431 0.17874998
-0.0041430141 -0.00032512561 0.17841665
-0.010815347 0.0027715096 0.17570375
-0.0089159766 0.0024344507 0.17821215
-0.0022854356 0.0022812805 0.1771552
0.0007507042 0.0027094823 0.17611542
-0.011345909 0.0079447748 0.17616305
-0.0097139124 0.0055694147 0.17842859
-0.00085851044 0.0069658654 0.17804347
0.00050151325 0.0081437435 0.17664708
-0.011930091 0.012627034 0.17672136
0.0024929252 0.012995146 0.17649512
0.0069058537 0.013595494 0.17501599
-0.011178896 0.016856544 0.17658824
-0.0096643018 0.019702293 0.17850001
-0.0013484588 0.019425014 0.17899996
0.0031604324 0.017560802 0.17773287
0.0074331029 0.017472668 0.17721334
-0.010572304 0.021153141 0.17561114
-0.0078673363 0.021387188 0.17723076
-0.0025071492 0.02096674 0.17854099
0.0026065763 0.02117523 0.17686407
0.0073165018 0.02119098 0.17655098
-0.0071938601 -0.00073540508 0.18055885
-0.0069254301 0.0026045872 0.18135004
-0.0038197229 0.0039454154 0.1801219
-0.010135311 0.0081176357 0.18020001
-0.0084042568 0.0073604411 0.18254736
-0.0031641452 0.0075762509 0.18224999
-0.010303129 0.012246896 0.18094446
-0.0091309855 0.012545565 0.18293844
-0.0012493514 0.012051405 0.18307409
0.00036714843 0.013065031 0.18132147
-0.0078800516 0.018087346 0.18153782
-0.0026520065 0.017828643 0.18225197
0.00075678196 0.01745961 0.18122223
-0.0075794659 0.020380683 0.18008338
-0.0033292368 0.020434359 0.18000001
-0.006888458 0.0037800856 0.18507142
-0.0063297092 0.0080515193 0.18532816
-0.0039821253 0.0090932641 0.185
-0.0065589924 0.012527159 0.186774
-0.0031149618 0.012792928 0.18550539
-0.0065691625 0.016376939 0.18662709
-0.0030922119 0.015704952 0.18519442
0.017299999 0.018255103 0.19122727
