# .PCD v0.7 - Point Cloud Data file format
VERSION 0.7
FIELDS x y z
SIZE 4 4 4
TYPE F F F
COUNT 1 1 1
WIDTH 220
HEIGHT 1
VIEWPOINT 0 0 0 1 0 0 0
POINTS 220
DATA ascii
-0.020290812 0.028933622 0.13400003
-0.017738547 0.028352592 0.13346896
-0.01342042 0.028567124 0.13240348
-0.020276401 0.030129759 0.134
-0.01722499 0.031175524 0.13368133
-0.014138134 0.031906478 0.13356957
-0.035813954 0.024651498 0.13866669
-0.032440245 0.024301462 0.13824427
-0.028023759 0.02456994 0.13888888
-0.024836926 0.024855088 0.13800001
-0.010441585 0.024597935 0.13900001
-0.036745265 0.026235418 0.13877776
-0.032576479 0.027025174 0.1384937
-0.027625227 0.026360761 0.13884999
-0.022500146 0.02738204 0.13656828
-0.017639467 0.027132962 0.13516667
-0.011191916 0.027468923 0.13663495
-0.021354403 0.032295771 0.13668184
-0.017843496 0.03341544 0.1362599
-0.012229095 0.032703418 0.13700008
-0.020455875 0.036226079 0.13887501
-0.018148825 0.037039727 0.13776031
-0.013314372 0.037207842 0.13809708
-0.018069336 0.040436458 0.13900001
-0.01328377 0.040616218 0.13900001
-0.040296249 0.023807256 0.14190912
-0.038890079 0.023910286 0.14268087
-0.032595169 0.023411889 0.14139999
-0.027809355 0.024433145 0.14030769
-0.010316087 0.023728395 0.14128572
-0.0079736626 0.022836609 0.14332214
-0.040317465 0.025215307 0.14
-0.037861053 0.027704338 0.14055005
-0.031883281 0.029165104 0.13999997
-0.027535649 0.028503789 0.14062688
-0.024683077 0.02947256 0.14
-0.016824126 0.028172093 0.14357899
-0.010284493 0.028324602 0.14085716
-0.0085270619 0.027032577 0.14267127
-0.037063327 0.031746861 0.14272025
-0.032349154 0.032489549 0.14182401
-0.027473256 0.032358274 0.14248221
-0.023944998 0.0328435 0.14086297
-0.010422802 0.030965047 0.14127274
-0.0080674551 0.032125123 0.14212501
-0.032780688 0.036445882 0.14328723
-0.026590424 0.035801154 0.14362864
-0.021986173 0.037429847 0.14231427
-0.016871637 0.03860243 0.14150552
-0.012039589 0.038146261 0.14114289
-0.0078761121 0.039179023 0.14274999
-0.020609356 0.04142531 0.1423226
-0.017175734 0.042588416 0.14223924
-0.012658392 0.042617939 0.14181814
-0.0087894695 0.042376995 0.14270973
-0.017514445 0.046554148 0.14358556
-0.013210692 0.046480961 0.14375389
-0.0091181351 0.046564281 0.1436667
-0.0053304704 0.019813428 0.14675
-0.0020011724 0.018946243 0.14794512
0.0002044305 0.01862335 0.14894736
-0.037889879 0.022868678 0.14725658
-0.0057169944 0.022754261 0.14559095
-0.0030814221 0.022386191 0.14764366
-0.037120409 0.025118787 0.14700001
-0.015906105 0.028701805 0.14638463
-0.006462757 0.027758267 0.14642616
-0.0037730427 0.026164284 0.14878467
-0.040021211 0.033874884 0.147
-0.037519064 0.034218289 0.14532073
-0.028963897 0.034543477 0.14500001
-0.0064867591 0.032122761 0.14630364
-0.037163176 0.037029419 0.1465103
-0.031830173 0.037962373 0.14560878
-0.027692946 0.037816405 0.14612824
-0.023787651 0.038339842 0.14565001
-0.011032803 0.039105024 0.14647369
-0.0066565871 0.03694373 0.14665595
-0.035740927 0.040751945 0.14875002
-0.03226383 0.04189226 0.14797127
-0.027409106 0.041554898 0.14791179
-0.023285868 0.042465597 0.14749259
-0.015149551 0.043600999 0.14500001
-0.010666507 0.04228371 0.14588608
-0.0083567332 0.042177748 0.14661367
-0.0022399728 0.014187372 0.15399994
0.00043007065 0.014795537 0.15266669
-0.036523547 0.018641176 0.15290591
-0.034884945 0.019524489 0.15333334
-0.0016055005 0.016496673 0.15350004
0.0011535309 0.017434064 0.15205376
-0.036583968 0.021868991 0.15167323
-0.034869153 0.02121162 0.15350002
-0.00068640476 0.022739504 0.15083337
0.00088228454 0.022343978 0.15173569
-0.036263574 0.025258664 0.15125
-0.015618406 0.029216491 0.15057144
-0.014588907 0.029650722 0.15100001
-0.0052909665 0.029061142 0.15000001
-0.002182693 0.028017374 0.15127034
0.00039471351 0.026344061 0.15356526
-0.01450974 0.030046564 0.15100001
-0.005202469 0.032693196 0.15186206
-0.0032803584 0.031879347 0.15301804
-0.038074207 0.039801642 0.15000001
-0.010324171 0.03991399 0.15000001
-0.0052204654 0.037419517 0.1516875
-0.00472367 0.037462998 0.15372227
-0.037166979 0.042684548 0.15071328
-0.031787142 0.044023238 0.15043187
-0.02811647 0.044040084 0.15037496
-0.024051091 0.044575423 0.14999999
-0.010166883 0.04038585 0.15000001
-0.0065070065 0.042434812 0.15186153
-0.0046849758 0.042006947 0.1537143
-0.040449295 0.014330206 0.15823078
-0.039807566 0.01469232 0.15875001
-0.010466133 0.013077027 0.15877777
-0.0076605007 0.01337032 0.15741377
-0.0038437396 0.013735874 0.15588102
-0.040109698 0.015106943 0.15700001
-0.037788071 0.016999781 0.15587755
-0.034002468 0.019163419 0.15696004
-0.010276721 0.015299389 0.15900001
-0.0070325881 0.016787646 0.15834107
-0.0038992274 0.017418867 0.15612219
-0.035658803 0.022724876 0.15668423
-0.033902474 0.02234485 0.15803781
-0.0060805711 0.020703979 0.15825
0.001846543 0.024991397 0.155
-0.035063531 0.025640776 0.15800001
-0.033368453 0.025630359 0.1579697
-0.00026635407 0.029867314 0.155
0.0011424653 0.027718887 0.15543553
-0.0015330286 0.033424478 0.15606974
0.00075787859 0.032054976 0.15723811
-0.0027066427 0.037431922 0.15679418
0.00017042042 0.035491094 0.15833335
-0.037155673 0.0097896624 0.16380773
-0.03282195 0.0098571628 0.16400002
-0.027307915 0.0097706756 0.16400002
-0.011646754 0.0093914038 0.16344003
-0.040846027 0.012354008 0.16210608
-0.038367808 0.011938515 0.16343687
-0.032263122 0.011026648 0.16399987
-0.028248085 0.01090808 0.16400003
-0.011198133 0.011811345 0.16143639
-0.038376946 0.016381089 0.16309094
-0.03405004 0.019096036 0.16225001
-0.010580857 0.016815851 0.16207695
-0.0082177753 0.018812455 0.16068754
-0.032866698 0.023159426 0.16127633
-0.0079955775 0.021012466 0.16153577
-0.032062959 0.026119916 0.16184616
-0.016382119 0.029136635 0.1622445
-0.014039244 0.029537931 0.164
-0.015647743 0.030366018 0.16200002
-0.014547517 0.030536678 0.162
0.0014737977 0.03408036 0.16117647
-0.00055213709 0.038738009 0.16000004
0.00068582466 0.03761467 0.16162963
-0.02539563 0.009648134 0.16500002
-0.022195857 0.0085967947 0.16702528
-0.018817291 0.0069016335 0.16892004
-0.013405778 0.0080060679 0.16735716
-0.036911022 0.013332397 0.16526513
-0.032490801 0.013477555 0.16540498
-0.027200717 0.013087674 0.16545887
-0.02339823 0.012399998 0.16653609
-0.03676787 0.016535971 0.16560586
-0.032396063 0.017481837 0.16682656
-0.027651839 0.017332179 0.16773641
-0.023925809 0.015983604 0.16818187
-0.011016357 0.019100619 0.16629413
-0.032327563 0.021452669 0.16815381
-0.028736591 0.020591723 0.16899997
-0.010707258 0.0217425 0.16787186
-0.0097236605 0.022329304 0.16666667
-0.031565014 0.027439538 0.16797732
-0.027493076 0.028890442 0.16888101
-0.022708844 0.028397342 0.16825612
-0.017157545 0.028161101 0.16713959
-0.014360313 0.027969314 0.16722642
-0.028431475 0.030225823 0.16900001
-0.022495497 0.030853132 0.16793622
-0.019241018 0.030411955 0.16812502
-0.014678502 0.030340899 0.16500001
-0.016870249 0.0049492382 0.17
-0.020791952 0.0099405004 0.17
-0.017019147 0.0079691531 0.17023189
-0.014683571 0.0086860117 0.17033336
-0.021125238 0.012617725 0.17061795
-0.017869689 0.012120709 0.17215715
-0.014187868 0.012751183 0.17269486
-0.025662862 0.019005094 0.17029169
-0.022244804 0.017620834 0.17147945
-0.019367253 0.015595462 0.17375001
-0.013409906 0.016307639 0.1739412
-0.031257883 0.023009347 0.1703974
-0.027192153 0.022682913 0.17088756
-0.02296805 0.022465993 0.17224397
-0.016668515 0.024353063 0.17345448
-0.013139377 0.023860293 0.17291796
-0.031048486 0.026515689 0.17073128
-0.027511546 0.027075477 0.17111653
-0.022109954 0.026470922 0.17180207
-0.017920062 0.026552184 0.17205946
-0.013629089 0.025899038 0.17084093
-0.026742641 0.030928981 0.1718857
-0.021182789 0.031094998 0.17044444
-0.019544136 0.030975105 0.17
-0.016756078 0.014028286 0.17566673
-0.020491194 0.018662432 0.17504545
-0.017401507 0.017576165 0.17608774
-0.014047859 0.017991532 0.1760613
-0.020710865 0.022789147 0.17616332
-0.017626824 0.022034017 0.1764937
-0.013740713 0.021808049 0.17598441
-0.020680729 0.025687525 0.1764667
-0.019741794 0.025424514 0.17600003
