# .PCD v0.7 - Point Cloud Data file format
VERSION 0.7
FIELDS x y z
SIZE 4 4 4
TYPE F F F
COUNT 1 1 1
WIDTH 146
HEIGHT 1
VIEWPOINT 0 0 0 1 0 0 0
POINTS 146
DATA ascii
-0.050408397 0.027834311 0.13400003
-0.047377009 0.028209828 0.13273074
-0.043748159 0.02830735 0.13277276
-0.046545833 0.030685477 0.13351516
-0.044223845 0.031329751 0.13306816
-0.04381277 0.024796464 0.13762501
-0.055800546 0.027823392 0.1382
-0.052743606 0.027270861 0.13592808
-0.048716873 0.027292041 0.13533334
-0.042892084 0.027538691 0.13645324
-0.055981811 0.0315587 0.13900001
-0.052362964 0.031474132 0.13819116
-0.047979996 0.033106163 0.13623022
-0.043281835 0.032635409 0.13618718
-0.056195918 0.035131 0.13900001
-0.050290931 0.035514146 0.13900001
-0.046857059 0.03693613 0.13807371
-0.043637734 0.036634803 0.13842331
-0.045490298 0.0405965 0.13900001
-0.045368802 0.023088122 0.14300001
-0.04408418 0.023702383 0.142814
-0.045704063 0.02550911 0.14
-0.042992789 0.027573412 0.14295071
-0.056147918 0.032889221 0.14064294
-0.053718265 0.033436898 0.14058824
-0.04231263 0.031989839 0.14263566
-0.039879918 0.030399365 0.14216669
-0.056461621 0.037349049 0.14230187
-0.052937377 0.03721476 0.14241511
-0.048145417 0.03867548 0.14039339
-0.042850588 0.038231723 0.14229365
-0.057911228 0.040722657 0.1437
-0.0505706 0.041482814 0.14400004
-0.046985958 0.042355221 0.1424
-0.043365769 0.04205253 0.14276667
-0.045555256 0.045588635 0.14394741
-0.043351904 0.045228362 0.14400001
-0.042553864 0.019286994 0.14817239
-0.045540601 0.021350356 0.146125
-0.043036286 0.022199087 0.14697103
-0.042541876 0.02733265 0.14731525
-0.041755822 0.03328174 0.14601845
-0.056004096 0.039523631 0.14500001
-0.054538894 0.039389074 0.14540002
-0.04231165 0.037032891 0.14698985
-0.060446322 0.041989919 0.14600001
-0.057168301 0.042760745 0.14611442
-0.053256549 0.042410225 0.14663005
-0.048702236 0.044221357 0.145
-0.042123124 0.043144446 0.14604504
-0.060992572 0.046994545 0.14878947
-0.057608038 0.046516478 0.14825004
-0.051403899 0.047027785 0.14863892
-0.04748584 0.047572993 0.14700937
-0.042738315 0.047376942 0.1464079
-0.041059662 0.018162146 0.15180227
-0.039281547 0.017945165 0.15288888
-0.0413354 0.022246575 0.15218242
-0.039367639 0.021186123 0.15363888
-0.04216858 0.02728126 0.15092044
-0.042255487 0.031689618 0.15257996
-0.041941747 0.038379047 0.15155001
-0.042203281 0.042396992 0.15254961
-0.067368947 0.013589444 0.15900011
-0.05059316 0.013379663 0.15899999
-0.047464464 0.013770592 0.15830186
-0.04286084 0.014098615 0.15733726
-0.067310944 0.015049293 0.15900001
-0.046586402 0.016785702 0.15876059
-0.042908095 0.01608769 0.15707348
-0.038968183 0.018404661 0.155
-0.040736899 0.024071971 0.15530433
-0.039168384 0.023085482 0.15648574
-0.041248851 0.027469838 0.15605068
-0.039338775 0.027440362 0.15818296
-0.041382093 0.032521777 0.15762268
-0.039660759 0.031796239 0.15899998
-0.042470973 0.036781646 0.15739624
-0.064093962 0.0097688297 0.16266668
-0.070282973 0.013564909 0.16042858
-0.066293932 0.013416919 0.16159548
-0.064408004 0.012274507 0.16307458
-0.055223193 0.011356495 0.16400002
-0.05239163 0.013238448 0.1608298
-0.04989833 0.01229019 0.16000001
-0.070423521 0.017644402 0.16128957
-0.067241237 0.01748424 0.16185917
-0.064441681 0.01552254 0.16400002
-0.051383018 0.017395819 0.16187017
-0.049113624 0.017601963 0.16081037
-0.071087763 0.02245458 0.16345234
-0.067847542 0.021905389 0.16331488
-0.051375605 0.020337313 0.16380002
-0.049308803 0.02029483 0.16125001
-0.039002184 0.024742926 0.16000001
-0.071355551 0.025849015 0.16400002
-0.066724144 0.029516464 0.16400003
-0.0647076 0.029882101 0.164
-0.058341142 0.029332504 0.16363637
-0.03884466 0.027683588 0.16053334
-0.067434005 0.030491019 0.16361767
-0.062211983 0.030810675 0.16322227
-0.058893964 0.030861054 0.16200003
-0.040233772 0.034686241 0.16066667
-0.039117422 0.032524757 0.16164194
-0.041414153 0.037813641 0.16121055
-0.039510645 0.037041832 0.16272099
-0.065391935 0.0092522968 0.16711111
-0.062291924 0.0089248987 0.16801041
-0.058045566 0.0093051782 0.16790475
-0.065196216 0.014811525 0.16800001
-0.063065983 0.012312999 0.16725244
-0.057113294 0.01090998 0.16696431
-0.054864869 0.011674429 0.16600001
-0.065383755 0.017922958 0.16517499
-0.063733421 0.017228231 0.16758972
-0.053276923 0.019416248 0.16500001
-0.070737198 0.024412543 0.16499999
-0.066414185 0.023086887 0.16611412
-0.064286754 0.022330707 0.16658694
-0.05784132 0.024890458 0.16800001
-0.052869193 0.020581942 0.16512501
-0.071554616 0.027518557 0.16599196
-0.067434631 0.027317768 0.1666894
-0.062616676 0.028058313 0.16719502
-0.05924632 0.027358992 0.16694823
-0.070788115 0.03021884 0.16542859
-0.065791383 0.030186992 0.16766667
-0.062593527 0.030582067 0.16539995
-0.038995381 0.032337103 0.16547824
-0.060459435 0.0087245516 0.17000002
-0.05949467 0.0082345139 0.16999999
-0.061097078 0.013063294 0.17134482
-0.05958559 0.013038963 0.17140001
-0.061812095 0.017561661 0.17182741
-0.059425533 0.017360065 0.17355552
-0.065398142 0.023602854 0.17135999
-0.06285505 0.022646414 0.17175876
-0.059540704 0.023904573 0.17328574
-0.065587536 0.026854238 0.17158332
-0.063049883 0.026552655 0.17119996
-0.066580683 0.030098446 0.17050001
-0.060598187 0.019748034 0.17500001
-0.059503704 0.019609142 0.1751667
-0.060859218 0.022001445 0.17579263
-0.059518918 0.02235084 0.17685717
