# .PCD v0.7 - Point Cloud Data file format
VERSION 0.7
FIELDS x y z
SIZE 4 4 4
TYPE F F F
COUNT 1 1 1
WIDTH 202
HEIGHT 1
VIEWPOINT 0 0 0 1 0 0 0
POINTS 202
DATA ascii
-0.041941248 0.019156229 0.1485333
-0.039274301 0.019354863 0.14827999
-0.041783851 0.020608863 0.14868966
-0.039223354 0.021420158 0.14843996
-0.045405559 0.017504629 0.15328574
-0.042902559 0.017987248 0.15223865
-0.036630213 0.018876707 0.15102109
-0.033237763 0.018328873 0.15305045
-0.04213677 0.023049997 0.15105081
-0.037163626 0.022646079 0.15170757
-0.033682805 0.021961417 0.15362389
-0.041901454 0.026632449 0.15332146
-0.038132049 0.027018316 0.1529412
-0.040312164 0.030320551 0.15400001
-0.038969845 0.031047221 0.15399998
-0.042328436 0.0066418448 0.15838888
-0.047122922 0.014854789 0.15900002
-0.042899575 0.014155651 0.1577742
-0.030646726 0.014802081 0.15528572
-0.027541084 0.014497784 0.15597059
-0.022573858 0.01442634 0.1559546
-0.017385881 0.013818013 0.15690124
-0.046549585 0.016459234 0.15702003
-0.043320343 0.016012592 0.15631583
-0.035047889 0.017189927 0.155
-0.031235257 0.01727723 0.15538736
-0.027618021 0.017353127 0.15625569
-0.022545133 0.017324774 0.15695773
-0.018035842 0.017389903 0.15766861
-0.035210419 0.024991397 0.155
-0.031625841 0.022868829 0.15674688
-0.028060831 0.021854648 0.15815978
-0.023459651 0.02137896 0.15839684
-0.018879725 0.020301137 0.15900002
-0.042691715 0.028779563 0.15581359
-0.036425009 0.028325882 0.15594169
-0.033330347 0.027334228 0.15757339
-0.029450083 0.02713686 0.15900001
-0.042040836 0.032254048 0.1575
-0.037333034 0.032412831 0.1574519
-0.033719879 0.03121951 0.15848978
-0.040223852 0.035751041 0.15875001
-0.03874293 0.036303736 0.15841071
-0.032867942 0.03563983 0.15900001
-0.042716395 0.0083769858 0.16055001
-0.019443948 0.0097861933 0.16400002
-0.056866646 0.012131863 0.16351242
-0.052652672 0.013142577 0.1620876
-0.048207331 0.0140079 0.16145074
-0.043004658 0.013746885 0.1614286
-0.020402052 0.014060823 0.164
-0.017729472 0.012193707 0.16263381
-0.055311516 0.015436566 0.164
-0.052731097 0.016775932 0.16326545
-0.048048556 0.016304996 0.1618
-0.043070152 0.015504736 0.16214286
-0.023092138 0.019673839 0.16000001
-0.015837664 0.017631577 0.1621207
-0.027207652 0.023263311 0.1602549
-0.022195531 0.022932949 0.16051605
-0.0177992 0.022578124 0.161147
-0.031137617 0.028013682 0.16063851
-0.027724331 0.027439872 0.16194347
-0.022639453 0.027478887 0.1627631
-0.01821778 0.026736019 0.16313669
-0.041714992 0.034605682 0.16000001
-0.035935093 0.033997372 0.16028573
-0.032175448 0.032657001 0.16189024
-0.028348807 0.032014281 0.16353403
-0.023714997 0.030466979 0.16360873
-0.04181651 0.037425611 0.16149436
-0.037044164 0.037916057 0.1613152
-0.032960977 0.037367735 0.16231206
-0.02870026 0.03620664 0.16346672
-0.057024214 0.0088406233 0.1679572
-0.054871317 0.006692233 0.16900001
-0.020878622 0.0085540116 0.16680555
-0.018815935 0.0088938242 0.1664146
-0.0567853 0.011612879 0.16638181
-0.053902678 0.011559131 0.16731249
-0.04810923 0.013691162 0.16561539
-0.04362458 0.014756095 0.16800001
-0.020629989 0.012022206 0.1661
-0.017214565 0.010607144 0.16595002
-0.056948103 0.017332932 0.16707698
-0.052351423 0.018687837 0.16516666
-0.04665193 0.015530692 0.16500001
-0.04338067 0.017866647 0.16778728
-0.015360681 0.019188756 0.16500002
-0.055814184 0.023332793 0.16830769
-0.052571807 0.022589395 0.16698506
-0.049727436 0.023492469 0.16720001
-0.043464281 0.020205332 0.16820002
-0.015676005 0.022466691 0.16578376
-0.055372614 0.027147651 0.16880003
-0.053281266 0.026578138 0.16782023
-0.049502682 0.026776476 0.16870002
-0.027037911 0.028717617 0.16530433
-0.021391535 0.029631533 0.16500001
-0.016631616 0.028338756 0.16600007
-0.014874004 0.026864722 0.16746669
-0.030404119 0.033964809 0.16499999
-0.026973916 0.033100385 0.1667576
-0.022375396 0.032816622 0.16656376
-0.017524151 0.032237094 0.16719648
-0.050738163 0.0045849457 0.17357144
-0.049717881 0.0042316169 0.17400001
-0.021081246 0.0046555717 0.17237499
-0.055601131 0.0090005891 0.17000003
-0.053186655 0.0072246189 0.17222875
-0.049379036 0.005339371 0.17400001
-0.021209672 0.0064011109 0.17140001
-0.019692153 0.0074261166 0.17233334
-0.055597078 0.010519844 0.16999999
-0.053443663 0.011416355 0.17192586
-0.046277322 0.012546293 0.17400001
-0.030410526 0.014832455 0.17300002
-0.028052261 0.014832454 0.17299999
-0.05769163 0.019709114 0.17
-0.043607824 0.017019695 0.17206448
-0.030597806 0.015048875 0.17133334
-0.028310709 0.015019597 0.171
-0.057523273 0.021764433 0.17095996
-0.043074362 0.020279543 0.17
-0.055909034 0.028479474 0.17
-0.051975727 0.02820853 0.17046461
-0.049669959 0.028509185 0.16999999
-0.015265912 0.029905548 0.17
-0.014790554 0.029667869 0.17
-0.055576988 0.031198598 0.17366667
-0.052504189 0.031429112 0.17301342
-0.04934752 0.032502644 0.1720625
-0.014774087 0.031244921 0.17050001
-0.03127753 -0.0017335188 0.17900001
-0.029963654 -0.0019212154 0.17900001
-0.048261866 0.0033116508 0.17753194
-0.020778546 0.0035753732 0.17725003
-0.019902866 0.0035012623 0.178
-0.051359098 0.0083514201 0.17549007
-0.048490513 0.0070159677 0.17738163
-0.020239456 0.0053773355 0.17525001
-0.019864827 0.0054930188 0.17600001
-0.051704474 0.011785164 0.17646603
-0.048612215 0.01219696 0.17718525
-0.043665126 0.017988363 0.1764546
-0.0582514 0.029853733 0.17600001
-0.048233476 -0.0012230122 0.18287238
-0.040227104 -0.0018646296 0.18400003
-0.037454478 -0.0009983934 0.18270312
-0.03241913 -0.00071592681 0.18018965
-0.027434722 -0.001144713 0.18034101
-0.022931239 -0.00090549875 0.18099998
-0.01943111 -4.5073171e-05 0.18233335
-0.047818117 0.0022584342 0.18186274
-0.036926374 0.0021210636 0.18330209
-0.032440875 0.0026194365 0.1818728
-0.027456252 0.0026419067 0.18233137
-0.022660501 0.0017307815 0.18195872
-0.0194884 0.0016771191 0.18241672
-0.046324126 0.006536528 0.18333335
-0.032226212 0.0060903379 0.18387502
-0.027801109 0.0059476318 0.18381821
-0.024751535 0.0061108777 0.18350002
-0.047239345 0.012964427 0.18350002
-0.046015389 0.01517179 0.18312502
-0.043240365 0.017574588 0.18215474
-0.046280224 -0.0017789217 0.1858537
-0.042798962 -0.0016878984 0.18585724
-0.039891474 -4.5732373e-05 0.185
-0.046550181 0.0024122968 0.18733634
-0.042567633 0.0025506925 0.18820964
-0.038365051 0.0036863834 0.18584847
-0.027864214 0.0049979594 0.185
-0.023596477 0.0033755135 0.18499997
-0.046942648 0.0072631789 0.18789479
-0.042978749 0.0060393969 0.18900008
-0.037144728 0.0073887166 0.18734752
-0.032614268 0.0084576877 0.18607964
-0.027609849 0.0079279756 0.18559997
-0.024760405 0.0053859358 0.185
-0.046783742 0.01304515 0.18686672
-0.043457989 0.014607321 0.18785003
-0.036653835 0.011147103 0.18814641
-0.032416742 0.012495151 0.18789461
-0.027648246 0.012439264 0.18822269
-0.024855485 0.013999499 0.18866669
-0.04592365 0.015254209 0.185875
-0.042083614 0.016884208 0.18680003
-0.038209368 0.016195415 0.1871081
-0.032283474 0.015502381 0.18813634
-0.027543452 0.015388866 0.18887508
-0.04606387 0.0079408269 0.19068116
-0.042279255 0.0077023683 0.19102608
-0.039016642 0.0082293237 0.19036368
-0.045909293 0.01191369 0.19157375
-0.042473402 0.012367299 0.19251353
-0.037919383 0.013190322 0.19149999
-0.034992691 0.014032027 0.19000003
-0.027023451 0.014297668 0.19000001
-0.041074026 0.015963679 0.19142306
-0.037083093 0.015703127 0.19033337
-0.034859873 0.015493056 0.19000003
