# .PCD v0.7 - Point Cloud Data file format
VERSION 0.7
FIELDS x y z
SIZE 4 4 4
TYPE F F F
COUNT 1 1 1
WIDTH 171
HEIGHT 1
VIEWPOINT 0 0 0 1 0 0 0
POINTS 171
DATA ascii
-0.071644232 -0.010863904 0.20357142
-0.071641684 -0.0088901091 0.20400001
-0.073736489 -0.015589142 0.20900001
-0.072810382 -0.012086357 0.20729165
-0.072028421 -0.0092287101 0.20657144
-0.072298266 -0.020524092 0.21228573
-0.068763122 -0.02068983 0.21400002
-0.05713005 -0.021023482 0.21400006
-0.054941341 -0.020863324 0.21400002
-0.077232629 -0.018266542 0.21290749
-0.072275154 -0.01755737 0.21202007
-0.069161147 -0.018322881 0.21361706
-0.056768823 -0.019533196 0.21400009
-0.054941341 -0.019648861 0.21400003
-0.075382948 -0.014583644 0.21100001
-0.073167719 -0.013601363 0.21260345
-0.073664546 -0.0078369165 0.21012503
-0.078832909 -0.020936508 0.21900003
-0.066941306 -0.021136254 0.2167895
-0.062860526 -0.020960553 0.21672095
-0.059730034 -0.020873662 0.215
-0.053018209 -0.021476487 0.21603391
-0.078566156 -0.016342504 0.21569999
-0.070188388 -0.015557335 0.215
-0.067400351 -0.01748614 0.21719074
-0.062643453 -0.017978933 0.21789128
-0.05743403 -0.017169183 0.21563905
-0.053258613 -0.01762419 0.21686481
-0.078570202 -0.014929229 0.21600001
-0.071718842 -0.012090464 0.21580383
-0.069214985 -0.013543382 0.21805261
-0.060926039 -0.0138305 0.21820001
-0.057397209 -0.012836384 0.21789676
-0.054036874 -0.0143883 0.21870004
-0.075664103 -0.0060534519 0.21688236
-0.072793595 -0.0076848501 0.21735297
-0.057586234 -0.0098101161 0.21900001
-0.075544082 -0.0034031584 0.21822225
-0.073493384 -0.0039143655 0.21884373
-0.052061819 -0.02561673 0.22278576
-0.080832213 -0.023180561 0.22313046
-0.078304075 -0.022478087 0.22191671
-0.051898569 -0.022556178 0.22238335
-0.065875366 -0.015740775 0.22000001
-0.064274698 -0.015891695 0.22000001
-0.051990777 -0.017544791 0.22224326
-0.070678562 -0.010748217 0.22057146
-0.067123957 -0.012327726 0.22099096
-0.063054129 -0.012325642 0.221
-0.055866972 -0.011305502 0.22005883
-0.053059846 -0.012318473 0.22089864
-0.071139134 -0.0070319306 0.22124004
-0.067980178 -0.0078861332 0.22225006
-0.06178258 -0.0084209619 0.22330905
-0.057237513 -0.0076625263 0.22247759
-0.053681038 -0.007996669 0.22331662
-0.075710483 -0.0017813075 0.22018184
-0.07254535 -0.002565278 0.22193865
-0.068862811 -0.0041438574 0.22400001
-0.056945737 -0.0030242389 0.22400001
-0.075407244 0.0026043784 0.22148724
-0.073618196 0.0018545929 0.22239295
-0.085718662 -0.025815358 0.22718184
-0.083150379 -0.025664441 0.22623812
-0.055203028 -0.029690064 0.22900002
-0.053294353 -0.027888624 0.22797301
-0.085959047 -0.024579454 0.22866669
-0.082189061 -0.024036683 0.22566664
-0.078553945 -0.024131423 0.22540002
-0.051181544 -0.022138497 0.22620688
-0.051740702 -0.016950089 0.22805087
-0.052653804 -0.012553534 0.22850005
-0.066227056 -0.0071849399 0.2255581
-0.063409165 -0.0067139277 0.22517025
-0.056549348 -0.0053361459 0.22500001
-0.052895822 -0.0074571166 0.22657149
-0.071081601 -0.0013791844 0.22499995
-0.067655481 -0.0026547066 0.22604822
-0.06232265 -0.0032417274 0.2273393
-0.057507332 -0.0026809224 0.2254317
-0.053626519 -0.0025259843 0.22637045
-0.071722493 0.0028062712 0.2256345
-0.068970844 0.0022897937 0.22696723
-0.054398391 0.00068058341 0.22752942
-0.088319071 -0.030899541 0.23399998
-0.055373017 -0.030948177 0.23100001
-0.051847011 -0.03147639 0.2323501
-0.049831729 -0.031729523 0.23400001
-0.088222943 -0.028771713 0.23348151
-0.055692706 -0.0274578 0.23
-0.051640347 -0.027877137 0.23178944
-0.087022915 -0.024206189 0.23100001
-0.051679589 -0.023088012 0.23309998
-0.051304724 -0.017898552 0.23171429
-0.051840857 -0.012112066 0.23199996
-0.052322831 -0.0073625124 0.23214288
-0.066620916 -0.0016923776 0.23013325
-0.063871525 -0.0014038977 0.23
-0.052519679 -0.0020796489 0.23149997
-0.080012344 -0.035745054 0.23800001
-0.079192564 -0.035634264 0.23887499
-0.050529186 -0.036153831 0.23853847
-0.049733929 -0.03628277 0.23900001
-0.090053968 -0.030721994 0.23500001
-0.086178631 -0.031638727 0.23549998
-0.082244962 -0.032299403 0.23695768
-0.079434745 -0.032940593 0.23882347
-0.055546828 -0.033570085 0.23900001
-0.050581452 -0.033042405 0.23682146
-0.049822837 -0.030599484 0.23850001
-0.086007155 -0.028737847 0.23587885
-0.082386859 -0.02808951 0.23745136
-0.079831831 -0.029242706 0.23900001
-0.050619625 -0.027497822 0.23654842
-0.051187605 -0.022447342 0.23625809
-0.051689744 -0.01817389 0.23680954
-0.051837243 -0.012154878 0.23635718
-0.052079067 -0.007294931 0.2355883
-0.077459469 -0.036364328 0.24225643
-0.065919161 -0.037060581 0.24331251
-0.062534794 -0.036514163 0.24149181
-0.056960352 -0.036580697 0.24019991
-0.053362083 -0.037167098 0.24090007
-0.04994202 -0.035656281 0.24000001
-0.07799793 -0.032829829 0.2410806
-0.065672815 -0.034793988 0.24350002
-0.062063828 -0.033406194 0.24222639
-0.057891052 -0.033929333 0.24068752
-0.051700559 -0.03402257 0.24050002
-0.049477521 -0.030911023 0.24071431
-0.08110176 -0.026306303 0.24115391
-0.079206623 -0.028070487 0.24178945
-0.050613388 -0.026889713 0.2408462
-0.049108908 -0.02693598 0.24140634
-0.08139132 -0.024506386 0.24133335
-0.050862085 -0.022156464 0.24086846
-0.049112923 -0.022531521 0.24210201
-0.051053438 -0.017439727 0.24166036
-0.049126629 -0.01764689 0.24363416
-0.05152335 -0.012573794 0.24288344
-0.049763326 -0.014139022 0.24399999
-0.075655013 -0.040536456 0.24600002
-0.072750755 -0.041090395 0.24832503
-0.069361359 -0.040381514 0.2475
-0.07607729 -0.037561517 0.24558496
-0.073696218 -0.037920456 0.24698001
-0.068237111 -0.038785137 0.24664287
-0.076773904 -0.032188453 0.24659258
-0.074484311 -0.03296648 0.24709527
-0.066171318 -0.032473207 0.24656522
-0.06396208 -0.031097557 0.24616663
-0.077463068 -0.028244309 0.24739714
-0.074845023 -0.027420182 0.24883334
-0.065894976 -0.028777061 0.24800001
-0.064253479 -0.028997075 0.24766666
-0.048895948 -0.020563083 0.24625
-0.048910659 -0.017696744 0.24614286
-0.050364096 -0.011537689 0.24685001
-0.049518652 -0.013691756 0.24562499
-0.072433107 -0.037454337 0.25166667
-0.075094953 -0.031036451 0.25100002
-0.073493831 -0.032745205 0.25322616
-0.06905856 -0.03226319 0.25240001
-0.075104758 -0.028504729 0.251625
-0.074265845 -0.028590292 0.25300005
-0.067426719 -0.029034711 0.25
-0.050185855 -0.015230303 0.25300002
-0.049835086 -0.015359144 0.25400001
-0.072083011 -0.036230922 0.25500003
-0.07177899 -0.032290798 0.25500008
-0.07238774 -0.028418258 0.25605002
