# .PCD v0.7 - Point Cloud Data file format
VERSION 0.7
FIELDS x y z
SIZE 4 4 4
TYPE F F F
COUNT 1 1 1
WIDTH 237
HEIGHT 1
VIEWPOINT 0 0 0 1 0 0 0
POINTS 237
DATA ascii
-0.016506551 0.036827449 0.11869942
-0.012409224 0.037905525 0.11626844
-0.0085148523 0.037734035 0.11695316
-0.004946189 0.039401557 0.119
-0.011688748 0.041953236 0.11810109
-0.0089703351 0.041331161 0.11849122
-0.0048221359 0.040225297 0.11800002
-0.035786223 0.034727845 0.12188002
-0.03206566 0.034353226 0.12087873
-0.027701186 0.034819204 0.12064104
-0.023023583 0.034740798 0.12102081
-0.0077472171 0.034555934 0.12242426
-0.035483293 0.037004218 0.12116664
-0.03253771 0.037254844 0.12043565
-0.027674111 0.037354615 0.12131625
-0.022358635 0.037443321 0.12139012
-0.018323308 0.037823386 0.12102275
-0.014346006 0.036885865 0.1204
-0.007153837 0.037272338 0.12131143
-0.0033244765 0.039286029 0.12219355
0.00060262525 0.03859989 0.12191667
-0.035265516 0.041404523 0.12305556
-0.032452032 0.041958254 0.12295729
-0.028213821 0.041750487 0.12323556
-0.022051277 0.041593153 0.12283055
-0.016834319 0.042276386 0.12243869
-0.013472845 0.043286651 0.12087806
-0.0073358552 0.042551398 0.12193246
-0.0035655168 0.04203568 0.12298998
-0.016463369 0.046163999 0.12400004
-0.012001289 0.047118008 0.1226631
-0.009014653 0.047339205 0.12292795
-0.010715059 0.050608881 0.12400002
-0.0094448179 0.05054887 0.12399998
-0.032098442 0.026293943 0.12871428
-0.0055917897 0.029605195 0.12899998
-0.0043502701 0.029479934 0.12899998
-0.035614859 0.033214338 0.1259675
-0.03269659 0.033052351 0.12748261
-0.0065763765 0.032447953 0.12758286
-0.0043290653 0.032213558 0.12869443
-0.035502788 0.035279535 0.12550001
-0.033026863 0.035611879 0.12643634
-0.029275838 0.035909548 0.12625
-0.0065819859 0.037264381 0.12680392
-0.0045149578 0.039831348 0.12800001
0.0018096889 0.039562389 0.12710717
-0.035096623 0.044890214 0.126
-0.03210564 0.044426929 0.12505715
-0.026653076 0.043277156 0.12576056
-0.022145903 0.04394348 0.12518987
-0.019370912 0.04302289 0.12549335
-0.0066337716 0.041966744 0.12727027
-0.0026176793 0.042508937 0.12701361
0.00086427561 0.040973216 0.12717648
-0.03524705 0.046628393 0.1275
-0.032149669 0.047223318 0.12678722
-0.027590122 0.047139298 0.12721403
-0.022170987 0.047199726 0.12686996
-0.017678175 0.047663804 0.12670621
-0.014082037 0.048749547 0.12593751
-0.0066946396 0.047596715 0.12642169
-0.0041205091 0.046613391 0.12760782
-0.031831469 0.050667848 0.1289842
-0.02763591 0.051326074 0.12888891
-0.021192085 0.051896691 0.12810339
-0.018216128 0.051771663 0.12819327
-0.012778809 0.052445602 0.12765595
-0.0082467217 0.052346796 0.12739067
-0.0048207655 0.050017051 0.12900001
-0.011146728 0.056257363 0.12883332
-0.0089994762 0.056935038 0.12882718
-0.035621904 0.029031081 0.13305126
-0.032377746 0.028451402 0.13191335
-0.0060533956 0.02966859 0.13033335
-0.0022511061 0.028551115 0.13229546
0.00030926187 0.027973918 0.13392004
-0.035351068 0.030726844 0.13015386
-0.032932073 0.032153185 0.13188644
-0.0058163693 0.034031861 0.13130772
-0.0027686523 0.032527849 0.13190071
-0.031141702 0.036192663 0.13218519
-0.02989585 0.037056051 0.13100001
-0.0060235038 0.037384007 0.13217998
-0.003102805 0.036222011 0.13245708
-0.014140785 0.040855382 0.134
-0.0061900187 0.040467713 0.13207693
-0.0025642694 0.042286824 0.13181394
0.0010142502 0.04388928 0.13180001
-0.026275847 0.04886793 0.13067396
-0.023875469 0.049422592 0.13041177
-0.018762361 0.049859516 0.13000003
-0.0026256922 0.047606234 0.1318256
0.0007525619 0.045586456 0.13370001
-0.035205547 0.052014243 0.133
-0.031993795 0.053097226 0.13112591
-0.02735135 0.052545682 0.13160382
-0.023122054 0.05236217 0.13146494
-0.018251989 0.052897908 0.13133895
-0.01348325 0.054430943 0.13011765
-0.0069177896 0.053309236 0.13076322
-0.0039564893 0.050485045 0.13333334
-0.001239698 0.023694266 0.13899998
0.0011371435 0.024248948 0.13857998
-0.037223846 0.027612733 0.13730003
-0.032391045 0.029051453 0.13690701
-0.000900777 0.026723193 0.13822727
0.0015486133 0.027239684 0.13725007
-0.030693101 0.032612354 0.13695502
-0.02997251 0.033926148 0.13900001
-0.00091467873 0.03259062 0.13607696
0.00091633451 0.031908009 0.13801339
-0.030777045 0.036312446 0.13679171
-0.029701255 0.037662283 0.13675001
-0.0054190666 0.038442638 0.13570003
-0.0015161051 0.037832547 0.13686331
0.00022753184 0.036682677 0.13895001
-0.017802119 0.041140933 0.13900001
-0.013638387 0.042167187 0.13768423
-0.0054709762 0.040940538 0.13591667
-0.0022700818 0.041827846 0.13717505
0.0011797535 0.042714853 0.13723999
-0.001345738 0.048811063 0.13625
0.002075704 0.046396635 0.13790001
-0.0026076115 0.051147543 0.13684449
-0.019618098 0.019335056 0.14400001
-0.040671375 0.023475679 0.14248648
-0.039548088 0.023454385 0.14352505
-0.019373627 0.022815159 0.14400001
-0.010301793 0.022674192 0.14342859
-0.0075055552 0.022921087 0.1422019
-0.0037279432 0.023316743 0.14013772
-0.040265609 0.025176777 0.14033334
-0.038971554 0.026059786 0.14131916
-0.033000223 0.028337399 0.14222729
-0.0064548338 0.026929684 0.14290515
-0.0033994559 0.027444633 0.14190386
-0.030390784 0.032073904 0.14152084
-0.029893477 0.03272751 0.14280002
-0.0064722379 0.031825501 0.14260001
-0.0047109835 0.030042496 0.142
0.001651477 0.033823341 0.14183052
-0.030730397 0.036493141 0.14130001
-0.017218495 0.03986983 0.142
-0.0090486854 0.035491437 0.14
-0.0035876587 0.039601889 0.14
0.0011824174 0.037638094 0.14105681
-0.017338505 0.04122759 0.14192106
-0.01274166 0.042164851 0.1422039
-0.002821337 0.042018667 0.14169569
0.00098855677 0.041548058 0.14215629
-0.00053418142 0.049731217 0.14
0.0014236798 0.049317714 0.14174075
-0.025552392 0.019792099 0.14820001
-0.020355778 0.019055579 0.14775001
-0.019270528 0.018832274 0.14731248
-0.012128279 0.019521846 0.14820002
-0.040084884 0.021554511 0.14500001
-0.037307803 0.023026401 0.14596927
-0.03241374 0.023016244 0.14590645
-0.027326012 0.022578411 0.1470919
-0.020481959 0.022468012 0.14793335
-0.019212678 0.022492912 0.14675312
-0.011441947 0.021911912 0.14646465
-0.0098279864 0.022086667 0.14500001
-0.037493095 0.026666364 0.14721869
-0.032492116 0.027314939 0.14754377
-0.027927864 0.025740141 0.14864707
-0.02025464 0.025898857 0.149
-0.019036064 0.026127972 0.14711428
-0.010873727 0.026988154 0.14812727
-0.0085814018 0.028045317 0.14670837
-0.031305429 0.031354625 0.14784618
-0.0074026561 0.031232182 0.14810444
-0.03146619 0.038814723 0.14778572
-0.026612401 0.039387386 0.14735292
-0.022136003 0.039285921 0.14827381
-0.01709651 0.038376506 0.14800601
-0.012264317 0.039050043 0.14741997
-0.0099280821 0.038507655 0.14650001
-0.031457514 0.040594257 0.14742219
-0.028011709 0.040660694 0.14704543
-0.02245554 0.041238688 0.14730147
-0.017061217 0.041246023 0.14645323
-0.012540381 0.041162651 0.14600876
-0.0012006118 0.044193897 0.14627273
-0.0024406014 0.0455085 0.14875001
-0.025235036 0.019529508 0.15000001
-0.022225639 0.018277077 0.1509694
-0.017649941 0.017287247 0.15290712
-0.0138322 0.0185387 0.15087299
-0.025167683 0.022786617 0.15005265
-0.02333126 0.022527279 0.15245837
-0.017873323 0.022338759 0.1522174
-0.013828085 0.022715826 0.15243216
-0.039051011 0.029120585 0.15046667
-0.030922191 0.028693823 0.15002444
-0.027398914 0.027979456 0.1507002
-0.024093742 0.027179342 0.15271874
-0.018450452 0.027614735 0.15252826
-0.012117702 0.027552044 0.15202324
-0.030707885 0.032310154 0.15089032
-0.02744662 0.032369245 0.15205303
-0.024753021 0.032605268 0.15351158
-0.018078942 0.033488907 0.15345712
-0.010602884 0.032267809 0.15169811
-0.0088228965 0.0330946 0.15137678
-0.031102728 0.03789505 0.15270105
-0.027014429 0.03686174 0.15230905
-0.022973575 0.03774678 0.15256032
-0.017599152 0.036474362 0.15178806
-0.012692655 0.037405755 0.15228097
-0.0096214553 0.035976108 0.15205882
-0.030103527 0.040070534 0.15300001
-0.02860303 0.041178528 0.15212902
-0.0169308 0.019620916 0.15519999
-0.023142528 0.02413811 0.15499999
-0.017236803 0.022557164 0.15630326
-0.014894103 0.024828866 0.155
-0.023059728 0.027812121 0.1560231
-0.01715661 0.026734106 0.1579773
-0.013799864 0.027841872 0.15591548
-0.022558643 0.032541122 0.15791202
-0.017271152 0.032750208 0.15674295
-0.01350132 0.032846387 0.15680832
-0.030388689 0.038643975 0.15499999
-0.029148115 0.038262323 0.15528952
-0.022358965 0.035997901 0.15675244
-0.017154885 0.035311356 0.15583335
-0.012790162 0.0362086 0.15547624
-0.028769452 0.041325457 0.15591672
-0.016649639 0.028688874 0.15999994
-0.02239904 0.032690037 0.15999992
-0.016221879 0.031270646 0.16053973
-0.013141215 0.033325955 0.16034786
-0.02328388 0.035384633 0.16000003
-0.012376998 0.035255134 0.16028574
