# .PCD v0.7 - Point Cloud Data file format
VERSION 0.7
FIELDS x y z
SIZE 4 4 4
TYPE F F F
COUNT 1 1 1
WIDTH 212
HEIGHT 1
VIEWPOINT 0 0 0 1 0 0 0
POINTS 212
DATA ascii
-0.00086780102 0.029469138 0.13834782
-0.00084600761 0.030518098 0.13772225
5.2646938e-05 0.030865327 0.13900001
-0.031244006 0.023035351 0.14348917
-0.027707173 0.021492137 0.14400004
-0.02017894 0.024425786 0.14400002
-0.016128305 0.023033988 0.14400004
-0.012248422 0.023050779 0.14257647
-0.0073957015 0.023653718 0.14058007
-0.0045451671 0.022346811 0.14292504
-0.030737106 0.025958478 0.14381821
-0.02017894 0.025331762 0.14400002
-0.016766429 0.025512954 0.14400002
-0.011665287 0.026397821 0.14325929
-0.0072333361 0.027213709 0.14184785
-0.002514658 0.027772777 0.14242861
0.0003021156 0.028433336 0.14175001
-0.0061973962 0.030645562 0.14395837
-0.0012681903 0.031527787 0.14
5.3025695e-05 0.030720377 0.14
-0.033691198 0.019961771 0.14900002
-0.0030568058 0.019609883 0.14857893
-0.032282639 0.021793613 0.14653954
-0.027153431 0.023245191 0.14545949
-0.022543756 0.022808524 0.14627019
-0.017791424 0.022480577 0.14519024
-0.014450623 0.023323959 0.14505263
-0.0051498734 0.021396976 0.14600001
-0.0030200207 0.02229587 0.14744449
-0.030828288 0.027778948 0.14648779
-0.027300544 0.027290938 0.14720359
-0.022163605 0.026457852 0.14792858
-0.017556613 0.027611794 0.14691658
-0.012892216 0.028088856 0.14628918
-0.0087347114 0.029359475 0.145
-0.0033411896 0.026902396 0.14629135
-0.030836755 0.031383745 0.14858337
-0.027360164 0.032041997 0.14865361
-0.02025464 0.031002667 0.14900002
-0.01710684 0.0315593 0.14822613
-0.011462905 0.032381527 0.14733084
-0.0076440237 0.032661699 0.1462139
-0.0030257402 0.033535216 0.14759494
0.00024148611 0.033320811 0.14700001
-0.0110328 0.036336165 0.14871113
-0.0072272923 0.03642315 0.14850448
-0.0019387228 0.035592493 0.14725003
-0.00065219234 0.014753683 0.15400003
0.00016598291 0.014710622 0.15400001
-0.032706674 0.018488042 0.1523044
-0.0019893639 0.017607259 0.15159127
0.00020630608 0.016931117 0.15387505
-0.032375421 0.020927444 0.15229166
-0.0016492598 0.022695268 0.15117696
0.0001846231 0.023180749 0.15378265
-0.026930317 0.028948 0.15029171
-0.023307614 0.02864334 0.15090697
-0.014256361 0.029847579 0.15000001
-0.0014889583 0.027425092 0.15135801
0.0004736323 0.027414192 0.152925
-0.031350616 0.032850988 0.15021744
-0.027929187 0.032708511 0.15098298
-0.023104839 0.032262426 0.15272774
-0.017559683 0.033302438 0.15047655
-0.014185458 0.032725811 0.15125003
-0.0033556067 0.033097088 0.15183333
5.6813242e-05 0.034566209 0.15000001
-0.031035101 0.036728617 0.15275677
-0.027454857 0.03708024 0.15280697
-0.024213454 0.036766429 0.15330556
-0.017302994 0.037303738 0.15242212
-0.013031715 0.037717376 0.15238358
-0.0075876 0.038816944 0.15078309
-0.0032556027 0.037618335 0.15147221
5.7760131e-05 0.035946578 0.1525
-0.031194033 0.040940352 0.15385717
-0.025257183 0.04139252 0.15366669
-0.02486315 0.040890362 0.15366669
-0.016076846 0.040917937 0.15348485
-0.0133398 0.041394092 0.15346874
-0.0067695794 0.042122141 0.15277691
-0.0037825084 0.042478122 0.15330301
-0.031877454 0.013914849 0.15852271
-0.00083521096 0.014589438 0.155
0.0027785352 0.013648234 0.15585716
0.0058824318 0.012624937 0.15853848
-0.031485379 0.017367469 0.1569777
-0.02953043 0.01851174 0.15810001
-0.002866843 0.015889682 0.155
0.0024988567 0.017456068 0.15679576
0.0053456035 0.016427903 0.15875
-0.031026149 0.020777954 0.15669772
-0.02934272 0.021085436 0.15822223
0.0014085931 0.022215297 0.15722586
0.0012954097 0.026880713 0.15714288
-0.023047719 0.034084093 0.15500005
-0.031129643 0.039153893 0.15503846
-0.028068796 0.039228927 0.15532261
-0.022714837 0.037677534 0.1564272
-0.019282429 0.039375357 0.155
-0.013203785 0.039749175 0.155
-0.00085931481 0.039323788 0.15511765
0.00030926432 0.038906381 0.15762499
-0.032674301 0.0097147254 0.16400003
0.0025214201 0.0088692037 0.16341172
0.0060082288 0.0092611993 0.16282763
-0.035490151 0.012567043 0.16382612
-0.032394998 0.012357058 0.1625033
-0.028771745 0.013653787 0.16218875
0.002663377 0.01135035 0.16332974
0.0066506853 0.012106468 0.16176367
-0.035019316 0.01509263 0.164
-0.030858483 0.016349142 0.16230772
-0.028683882 0.017486943 0.16197872
0.0039346428 0.019574696 0.16000001
0.0064659421 0.017529702 0.16162026
-0.03032699 0.020218855 0.16100001
-0.028698727 0.021031646 0.1621163
0.003632582 0.022600632 0.16121274
0.0057397597 0.021228513 0.16255173
0.0027561847 0.027115639 0.16182859
0.0021625236 0.032162804 0.16282929
-0.035784949 0.0082341451 0.16783872
-0.033709049 0.0084763803 0.16759261
-0.0060892235 0.0076260665 0.16829236
-0.0025921301 0.0079761092 0.16582523
0.0010192683 0.0074666273 0.16511998
-0.035867244 0.011762779 0.16499999
-0.031200899 0.011126835 0.16659373
-0.028385842 0.013284357 0.16693334
-0.0022546367 0.012281965 0.16729388
0.00059250515 0.012482285 0.16544116
-0.027887311 0.017799467 0.16726193
-0.0021982235 0.01560388 0.16840003
-0.027951749 0.02129454 0.16767742
-0.012462812 0.024302566 0.16877778
-0.0072440496 0.02471818 0.16866669
0.0048377472 0.024458341 0.16500001
0.0062355096 0.023538288 0.16648717
-0.011420273 0.025401201 0.16850001
-0.0072108754 0.025491407 0.1684
0.0043106382 0.028049232 0.16557142
0.0060256543 0.027247701 0.16714062
0.0036497999 0.032705832 0.16614291
0.0063573816 0.031437598 0.16865121
-0.021163579 0.0046494282 0.17220001
-0.018330518 0.00334156 0.17395733
-0.0081576519 0.004041818 0.1737143
-0.031828012 0.0077350112 0.17024612
-0.027489809 0.0075502642 0.1709262
-0.022692524 0.0074044224 0.17162961
-0.017092966 0.0066269683 0.17346366
-0.014903394 0.0096967351 0.17200001
-0.0072143446 0.0063109212 0.17223528
-0.030685773 0.010797947 0.17072223
-0.027534651 0.011809066 0.1724489
-0.022873864 0.011621635 0.1734091
-0.015407728 0.010418703 0.17320001
-0.014704281 0.011117306 0.17390002
-0.0060274019 0.012428506 0.17101556
-0.0044553089 0.013540681 0.17013338
-0.027707873 0.01737361 0.1719512
-0.005708436 0.017002348 0.17234996
-0.0039655888 0.016159723 0.1711389
-0.027322907 0.021670811 0.17115386
-0.015944405 0.024588238 0.17400001
-0.011806116 0.024008112 0.17199998
-0.0071712187 0.023430351 0.17257136
0.0075342669 0.024288468 0.17023076
-0.010741027 0.02537684 0.17120001
-0.0085696746 0.025189994 0.17145455
0.0074745822 0.027998453 0.17094871
-0.012952869 -4.3853637e-05 0.17739999
-0.020552993 0.0042439979 0.17522223
-0.016186353 0.0031627861 0.17574331
-0.012673583 0.0025806827 0.1777346
-0.0087022698 0.0033616913 0.17561117
-0.020532606 0.0079273926 0.17548655
-0.017598314 0.0076862159 0.17643405
-0.012767021 0.0064480221 0.1786111
-0.0089752441 0.0076061832 0.17688064
-0.02609398 0.0136098 0.1750477
-0.021934018 0.013088828 0.17621574
-0.01770805 0.011302691 0.17823531
-0.014413593 0.012945295 0.17706896
-0.0083371755 0.011258066 0.17841664
-0.026445188 0.01738273 0.17662266
-0.022453493 0.017458178 0.17752202
-0.018189959 0.018520653 0.17900002
-0.013180253 0.018755466 0.17837881
-0.0082446542 0.018957123 0.17787094
-0.0047047762 0.017389458 0.17500001
-0.026305493 0.022179114 0.17801175
-0.022466153 0.021736927 0.17785612
-0.017279174 0.022437209 0.17710789
-0.012793734 0.021894144 0.17614596
-0.0084521119 0.022114677 0.17640503
-0.011634022 0.0048628794 0.18000001
-0.016767891 0.0091285212 0.18000002
-0.012660382 0.0080870269 0.18128042
-0.020316301 0.014300141 0.18000001
-0.017974408 0.013215156 0.18081552
-0.013335909 0.011904671 0.18278572
-0.0088663688 0.013025129 0.18056865
-0.017632287 0.017383579 0.18120457
-0.012302141 0.017542576 0.18183517
-0.0083583388 0.017501576 0.18189998
-0.020227395 0.021764582 0.18033335
-0.018499319 0.020782502 0.18046878
-0.01173746 0.012827697 0.18517455
-0.011527939 0.015919074 0.18499999
-0.0096293343 0.016249271 0.185
