# .PCD v0.7 - Point Cloud Data file format
VERSION 0.7
FIELDS x y z
SIZE 4 4 4
TYPE F F F
COUNT 1 1 1
WIDTH 156
HEIGHT 1
VIEWPOINT 0 0 0 1 0 0 0
POINTS 156
DATA ascii
-0.00026071194 -0.060700066 0.27400002
0.0024287114 -0.060357627 0.27354547
0.0051627741 -0.060257208 0.273
-0.00023849808 -0.059011813 0.27400002
0.0025646996 -0.058055744 0.27351996
0.0052927546 -0.059256166 0.27400002
-0.0015843663 -0.060940679 0.27590004
0.0038629002 -0.060921598 0.27500001
0.0075836633 -0.061663326 0.27773333
-0.0016357348 -0.057438955 0.27651161
0.0029757046 -0.056195408 0.27527592
0.0065478454 -0.057497803 0.27772343
-0.00069328345 -0.05388983 0.27800006
0.0025232842 -0.053012233 0.27731091
0.0057559013 -0.053833179 0.27861544
0.001657165 -0.049140964 0.27900001
-0.017819017 -0.066114694 0.28370002
-0.0080647282 -0.065922141 0.28399998
0.012757942 -0.066025712 0.28258827
0.017509397 -0.066531777 0.28395128
0.021060415 -0.066961147 0.28399998
-0.016610118 -0.062025242 0.2836667
-0.0063870945 -0.063560084 0.28400001
-0.0042268299 -0.062468279 0.28300002
0.0093675125 -0.062075723 0.28033337
0.01217309 -0.062923186 0.28273538
0.016473768 -0.063631706 0.28400007
0.025632439 -0.064066626 0.28400001
-0.01780729 -0.058924466 0.28400001
-0.0052205143 -0.059691954 0.28400001
-0.003773124 -0.05651015 0.28142864
0.0088428762 -0.057413619 0.28171426
0.01099883 -0.058411304 0.28352171
-0.0020567332 -0.052441008 0.28177276
0.0029267541 -0.050683875 0.28016672
0.0070692892 -0.052414376 0.28201926
-0.00061521231 -0.047740173 0.28364703
0.0027312653 -0.047362458 0.28176248
0.0062959641 -0.04791899 0.28346667
-0.00052349753 -0.044311531 0.28400001
0.0023646071 -0.043476094 0.28363648
0.0053707976 -0.044956218 0.28400001
-0.016617887 -0.070176393 0.28733337
0.024443617 -0.070349149 0.289
-0.016472964 -0.068038456 0.28610349
-0.01269415 -0.066559851 0.28535479
-0.0084274784 -0.066880047 0.28500006
0.017404657 -0.068682283 0.28500003
0.022587117 -0.067448281 0.28569695
0.025349215 -0.065213405 0.28600001
-0.015901273 -0.061786029 0.28646675
-0.012579616 -0.062776454 0.28630671
-0.0082581807 -0.06193186 0.28577584
0.013773527 -0.060603984 0.28523532
0.017922439 -0.061584786 0.28543997
0.022449723 -0.06267903 0.28594238
0.025295166 -0.061795298 0.28614292
-0.016734017 -0.058134068 0.28752005
-0.012162965 -0.059403136 0.28884214
-0.0072733946 -0.058008179 0.28765383
0.01313194 -0.057286471 0.2867308
0.017674146 -0.057575356 0.2879324
0.021558089 -0.05861073 0.28879172
-0.016968483 -0.054928958 0.28800002
-0.0057646241 -0.053946525 0.2881667
-0.0040542176 -0.051706553 0.28666669
0.0090487804 -0.052114487 0.28525001
0.012029393 -0.052915309 0.28739998
0.016103977 -0.054054998 0.28847063
-0.0026105933 -0.047650091 0.28636113
0.0080756713 -0.047349904 0.28605127
0.010812458 -0.049147177 0.28845459
-0.0017274613 -0.042238515 0.28605884
0.0027827378 -0.04144872 0.28521624
0.0067781764 -0.042764895 0.2873469
-0.0011950755 -0.037928276 0.28777781
0.002546326 -0.03772888 0.28679681
0.0060107526 -0.039264455 0.28746158
-0.013985049 -0.07132791 0.294
0.018867664 -0.071860395 0.29169235
0.020896174 -0.072021008 0.29144442
0.024410643 -0.068946794 0.29000002
0.024293087 -0.06048283 0.29000002
-0.016211912 -0.056777138 0.29155996
-0.01248872 -0.057048693 0.29120323
-0.0086639328 -0.055906586 0.29033336
0.01912066 -0.055310406 0.29000002
0.022481872 -0.056871772 0.29070589
-0.016842851 -0.052918274 0.29289144
-0.012360144 -0.052865483 0.29331672
-0.0077371257 -0.052445691 0.29198244
0.014598969 -0.052478191 0.29125002
0.017811878 -0.052416198 0.2925483
0.021361154 -0.0533031 0.29282352
-0.010648105 -0.049876127 0.294
-0.0070256623 -0.048619743 0.29361111
-0.0044606947 -0.047124837 0.29111111
0.0094878403 -0.047066513 0.2902
0.01169962 -0.047091123 0.29152775
0.01738501 -0.048513081 0.29384306
0.021052867 -0.049876127 0.294
0.0092337737 -0.042421188 0.29106671
0.010637387 -0.043519732 0.29246154
-0.012030552 -0.075629175 0.29875001
-0.015253842 -0.073848352 0.29550001
-0.012912473 -0.072989993 0.29650003
-0.016889075 -0.050317779 0.29566669
-0.013410792 -0.050428446 0.29500005
0.01379951 -0.05097764 0.2957778
0.022566514 -0.052087635 0.29544449
-0.017076418 -0.047643907 0.29607683
-0.012486619 -0.047405053 0.2964246
-0.0081489803 -0.046520311 0.29586485
0.013876604 -0.047268111 0.29635715
0.017821549 -0.046121143 0.2955313
0.021374421 -0.047114991 0.29645714
-0.016314199 -0.043406982 0.29833332
-0.012580575 -0.044005264 0.29867992
-0.0074269101 -0.043081157 0.29811364
-0.0049510938 -0.04264329 0.29539999
-0.011149167 -0.076188624 0.29999998
-0.0095087476 -0.076095439 0.30155557
-0.01119601 -0.074527353 0.3001667
-0.0094876653 -0.07408417 0.30088893
0.024186701 -0.052147985 0.30084008
0.025702607 -0.052222788 0.30100003
0.014672427 -0.04505679 0.30000001
0.023913924 -0.048288662 0.30088243
0.025702605 -0.048501357 0.30100003
-0.007212 -0.081615992 0.3087931
-0.0025227875 -0.081409909 0.30778575
0.0023212607 -0.081201985 0.30700007
0.0075579602 -0.081465796 0.30710819
0.012394917 -0.082056992 0.30849999
0.016003279 -0.081712246 0.30892861
-0.0070586572 -0.078223363 0.30866665
-0.0019629919 -0.078850985 0.30851728
0.0025435488 -0.077534296 0.30776662
0.0072187157 -0.078068726 0.30833954
0.011779441 -0.079153076 0.30885717
0.016108982 -0.079165436 0.30853853
-0.0081852069 -0.074466065 0.30900002
0.0033697532 -0.074591324 0.30900002
0.0083487201 -0.072962977 0.30900002
0.012695358 -0.080956414 0.31028572
-0.0061041373 -0.0761296 0.31020001
-0.0027970041 -0.076733619 0.31036589
0.00033334584 -0.0752097 0.31
0.008477862 -0.075875282 0.31004998
0.012663101 -0.077521905 0.31094122
0.015412833 -0.077220291 0.31
-0.0063519543 -0.073888451 0.31089473
-0.0024543509 -0.073306628 0.31064448
0.002387078 -0.07287129 0.31045946
0.0073208003 -0.074150413 0.31010523
0.011932653 -0.074948043 0.31100002
