# .PCD v0.7 - Point Cloud Data file format
VERSION 0.7
FIELDS x y z
SIZE 4 4 4
TYPE F F F
COUNT 1 1 1
WIDTH 161
HEIGHT 1
VIEWPOINT 0 0 0 1 0 0 0
POINTS 161
DATA ascii
-0.071408331 -0.017093096 0.20819452
-0.069152601 -0.016290467 0.20823815
-0.07054954 -0.014546921 0.20700003
-0.069180086 -0.012479777 0.207617
-0.06921266 -0.008514978 0.20751998
-0.057169389 -0.020854199 0.214
-0.052642535 -0.020733204 0.214
-0.04707839 -0.020665661 0.21375
-0.071790896 -0.018260077 0.21000001
-0.066858001 -0.016914675 0.21049063
-0.06277474 -0.017673595 0.21291298
-0.056975085 -0.018680179 0.21399994
-0.052615102 -0.018501675 0.21400012
-0.048100431 -0.018119728 0.21376918
-0.067217246 -0.012539855 0.21200675
-0.06424433 -0.013725083 0.21361908
-0.068536252 -0.0086149732 0.21335092
-0.06019485 -0.020321695 0.215
-0.045840349 -0.020377733 0.21766669
-0.044657052 -0.020016128 0.21800001
-0.060899902 -0.016871763 0.21544193
-0.058164239 -0.016436074 0.2156596
-0.05261898 -0.016245786 0.21551111
-0.04699805 -0.017212197 0.21735007
-0.044506799 -0.01513658 0.21900001
-0.065524742 -0.010459836 0.21533334
-0.062589362 -0.012373946 0.21677171
-0.057710297 -0.012639385 0.21770972
-0.052753311 -0.012966455 0.21741159
-0.048060223 -0.013028665 0.21757935
-0.04422272 -0.013964759 0.21900001
-0.070820339 -0.0058288877 0.21622224
-0.067077987 -0.007319144 0.21649995
-0.06396804 -0.0085322103 0.21848001
-0.057349499 -0.0093958369 0.21900003
-0.050543461 -0.0090999212 0.21900001
-0.049271315 -0.0087111769 0.21817648
-0.070981957 -0.0027136868 0.21797727
-0.067644738 -0.0034462512 0.21726319
-0.064747363 -0.0048387507 0.21900001
-0.070867583 0.00090547377 0.21900004
-0.068982407 0.001109082 0.21891668
-0.080330074 -0.024501748 0.22400001
-0.076172203 -0.022649409 0.2228929
-0.074735098 -0.022452531 0.22360002
-0.046587311 -0.021893283 0.22058335
-0.04585547 -0.016988248 0.22041932
-0.044220317 -0.015898041 0.22084616
-0.057551917 -0.010568349 0.22000001
-0.05338268 -0.010524369 0.22033337
-0.046556622 -0.011598462 0.22158334
-0.043816749 -0.012360896 0.22135007
-0.062199764 -0.007059752 0.22053769
-0.057420321 -0.0074741933 0.2215862
-0.052972868 -0.0078311497 0.22208534
-0.048119072 -0.0077949716 0.22286169
-0.044063404 -0.0092108874 0.22357145
-0.072177395 -0.00022349911 0.22000001
-0.066391483 -0.0017765053 0.22068658
-0.062579609 -0.002822628 0.22261311
-0.056797445 -0.0040724468 0.22343589
-0.052165046 -0.0037890002 0.22345833
-0.049649678 -0.0042112316 0.22342861
-0.070393801 0.0013817362 0.22000001
-0.067335337 0.0024108128 0.22133337
-0.064000838 0.00043264448 0.22372727
-0.080829032 -0.025724964 0.22516663
-0.078554988 -0.02555313 0.22531575
-0.047917616 -0.027231229 0.22733334
-0.080681577 -0.023656599 0.2253529
-0.076985382 -0.023769403 0.22596771
-0.074670739 -0.023181088 0.2271111
-0.046786238 -0.023050398 0.22730771
-0.045595873 -0.019017894 0.22800002
-0.046273407 -0.010078887 0.22500001
-0.053414416 -0.0058348454 0.22550003
-0.046126273 -0.0069464804 0.22565857
-0.044126756 -0.0068962369 0.22566663
-0.0610261 -0.00063926214 0.22525002
-0.05807789 -0.0018322824 0.22572286
-0.05311336 -0.0023247593 0.22595395
-0.047636081 -0.0024973 0.22691803
-0.04396924 -0.0026295967 0.22688375
-0.043779213 0.00045676422 0.22871429
-0.081875786 -0.030844569 0.23200005
-0.079031244 -0.031159047 0.23354287
-0.046287477 -0.031472906 0.2314651
-0.044577818 -0.031863093 0.23287995
-0.082077853 -0.028893439 0.2317885
-0.078918636 -0.028188495 0.23352274
-0.046103898 -0.027569395 0.231746
-0.044518989 -0.027850287 0.23356521
-0.075209565 -0.024350023 0.23
-0.074712314 -0.0232623 0.23
-0.045865584 -0.023268808 0.23122859
-0.045250572 -0.019253265 0.23
-0.060584672 -0.03628277 0.23900001
-0.057232901 -0.03637116 0.23900011
-0.052446604 -0.036515288 0.23900008
-0.047135428 -0.036501989 0.2388718
-0.076538786 -0.031578727 0.23521739
-0.07315731 -0.032229163 0.23614614
-0.058905393 -0.034732662 0.23900001
-0.05104183 -0.034006052 0.23899999
-0.047718793 -0.034577653 0.23900001
-0.07640449 -0.027687773 0.23675647
-0.073550247 -0.027627379 0.23846492
-0.045091152 -0.025006386 0.23500001
-0.044329073 -0.026721068 0.23500001
-0.075893089 -0.023892483 0.238625
-0.073960513 -0.023873864 0.23891668
-0.045339696 -0.022020871 0.23570006
-0.044899166 -0.022217698 0.23644447
-0.045524936 -0.018740797 0.23818181
-0.071389191 -0.036190845 0.24200004
-0.060708448 -0.036045432 0.24000001
-0.056168389 -0.03799117 0.24000001
-0.050331172 -0.036979385 0.24000001
-0.049812306 -0.036953442 0.24000001
-0.044639643 -0.035868175 0.24055558
-0.071679033 -0.032892708 0.24172346
-0.060599908 -0.032865223 0.24105883
-0.057303358 -0.032611027 0.24106936
-0.052986227 -0.033778757 0.24035892
-0.045070108 -0.031115618 0.24100003
-0.044506032 -0.032734055 0.24136114
-0.072539225 -0.027149975 0.24127272
-0.060392104 -0.029423136 0.24316669
-0.05811552 -0.029396931 0.24359998
-0.045070108 -0.028184846 0.24100003
-0.044067845 -0.027009888 0.24109763
-0.072772041 -0.024241276 0.24000001
-0.045110535 -0.02312718 0.24080001
-0.044288911 -0.022236003 0.24247174
-0.045567315 -0.016870545 0.2404706
-0.044415217 -0.017559653 0.24189132
-0.045367107 -0.012504304 0.24164999
-0.044596948 -0.013169862 0.24304168
-0.045408826 -0.0091171768 0.24316669
-0.04455018 -0.0095257144 0.24350002
-0.06798289 -0.040610604 0.24706249
-0.070670716 -0.037496522 0.24517387
-0.067679539 -0.037493344 0.24709749
-0.064315133 -0.038394321 0.24700001
-0.071244523 -0.031949557 0.24574417
-0.068923049 -0.032943718 0.24765001
-0.064876705 -0.034432109 0.24800001
-0.071483739 -0.027705647 0.2463088
-0.069710083 -0.028730014 0.24792311
-0.061210804 -0.027484817 0.24599996
-0.058193903 -0.027384769 0.24539995
-0.060364738 -0.024980266 0.24600001
-0.059434026 -0.024980268 0.24600002
-0.043384969 -0.020856513 0.245
-0.043759655 -0.01733087 0.24499997
-0.044229142 -0.01335832 0.245
-0.067462809 -0.03196517 0.25101322
-0.064994544 -0.032682974 0.25
-0.070201293 -0.028280433 0.25050002
-0.068386555 -0.028239753 0.25310341
-0.067369454 -0.027093241 0.25500005
