# .PCD v0.7 - Point Cloud Data file format
VERSION 0.7
FIELDS x y z
SIZE 4 4 4
TYPE F F F
COUNT 1 1 1
WIDTH 220
HEIGHT 1
VIEWPOINT 0 0 0 1 0 0 0
POINTS 220
DATA ascii
-0.002421373 0.018685389 0.12260001
-0.0026982971 0.020688022 0.12312502
-0.0025836697 0.021825029 0.12746155
-0.0026204947 0.022354919 0.13090912
-0.036750041 0.023337305 0.14323273
-0.032662291 0.02311963 0.14259684
-0.02055393 0.023135439 0.14340007
-0.017541563 0.023341017 0.14278349
-0.012382082 0.023538418 0.14212659
-0.0096411901 0.023114139 0.14373338
-0.036572959 0.025923371 0.14366674
-0.032847278 0.026933145 0.1432355
-0.020239338 0.02575455 0.14400001
-0.017487826 0.026313735 0.14362001
-0.012352222 0.02673609 0.14334998
-0.0099112038 0.025029767 0.14400001
-0.0334666 0.030163638 0.14400001
-0.016555034 0.030465631 0.14400001
-0.038718026 0.019485118 0.14872727
-0.010353177 0.019538349 0.14816667
-0.0098164622 0.019812955 0.14866666
-0.040074971 0.022618391 0.14533335
-0.038765334 0.021805329 0.14713642
-0.030536313 0.023420483 0.14542307
-0.027277136 0.022970296 0.14555471
-0.023101252 0.022803005 0.14626168
-0.01957312 0.021953879 0.14700001
-0.010700957 0.021117333 0.14581819
-0.0090273004 0.022154413 0.14620891
-0.037261516 0.028091621 0.14593138
-0.031318758 0.028150173 0.14553112
-0.027498174 0.027478246 0.14729108
-0.022342578 0.026748009 0.14738286
-0.017299628 0.028402755 0.14582524
-0.012163173 0.02836966 0.14607283
-0.008962485 0.027799321 0.14801724
-0.0027034762 0.027918143 0.14554544
-0.03651537 0.031647176 0.1475658
-0.032353092 0.032424573 0.14731404
-0.027907772 0.032015726 0.14838812
-0.020342387 0.03087399 0.1485
-0.017303864 0.032322336 0.14760783
-0.011882335 0.03202432 0.14739999
-0.0080864308 0.03204025 0.14852275
-0.0047227214 0.030175479 0.147
-0.033743277 0.035325289 0.149
-0.029628983 0.035273205 0.149
-0.015847282 0.036822889 0.14850003
-0.011215097 0.035585679 0.14900002
-0.040285584 0.01866409 0.15220001
-0.038462762 0.01882608 0.15207937
-0.010460469 0.017415792 0.15267499
-0.0095129702 0.018485736 0.15257141
-0.038328256 0.021143926 0.15162502
-0.011147119 0.022371048 0.1505
-0.0088872956 0.021236245 0.15144445
-0.025109207 0.029061142 0.15000001
-0.023483627 0.029012257 0.15028127
-0.0089031942 0.027965704 0.1503824
-0.037759084 0.033516746 0.1506301
-0.03202986 0.034802139 0.15000001
-0.027250614 0.032956071 0.15041521
-0.022784865 0.032453816 0.15178555
-0.017113784 0.034111202 0.15004352
-0.013628871 0.033778626 0.15032081
-0.0080070384 0.03282474 0.151575
-0.0039080447 0.031335402 0.15276924
-0.036718003 0.037258785 0.15153737
-0.03230767 0.037628453 0.15111376
-0.027434861 0.037552979 0.15189569
-0.022620017 0.036550708 0.15377323
-0.017648514 0.037717741 0.15081061
-0.012636769 0.037525728 0.15162933
-0.0088653816 0.037068401 0.15265062
-0.035873719 0.041104697 0.15304999
-0.032475933 0.042211156 0.15277983
-0.027886678 0.041993387 0.15241176
-0.024656968 0.043295834 0.15248387
-0.016486146 0.041775782 0.15261111
-0.013220945 0.041625958 0.15357554
-0.0097956499 0.04113524 0.15377779
-0.042950921 0.013987038 0.15861979
-0.010239958 0.014784968 0.15640001
-0.0074905953 0.013514668 0.15738767
-0.042067286 0.016928956 0.1580926
-0.039124977 0.017885812 0.15715002
-0.010729583 0.01651049 0.155875
-0.0079865474 0.017214317 0.15679222
-0.038109679 0.021261591 0.15566668
-0.013311242 0.02348993 0.1562667
-0.0083575761 0.020474108 0.15777779
-0.024114018 0.034152213 0.15499999
-0.007092637 0.031492621 0.155
-0.0034161259 0.032577649 0.15699999
-0.039598744 0.037018664 0.155
-0.022783436 0.038208261 0.15521096
-0.019770021 0.039944213 0.155
-0.0072017363 0.038219512 0.15703394
-0.045886599 0.0096301399 0.16385716
-0.0033063863 0.0091720913 0.16392002
-0.045895487 0.01123744 0.16286118
-0.043258917 0.01293204 0.16148722
-0.0059157996 0.012551839 0.16086538
-0.0040872521 0.012298648 0.1612625
-0.040724289 0.015722454 0.16222225
-0.039547134 0.01733912 0.16060001
-0.011807984 0.017778665 0.16366668
-0.0056800027 0.017577814 0.16136765
-0.0041341926 0.017338652 0.1627869
-0.030175615 0.022722626 0.162
-0.027987899 0.022464888 0.16113336
-0.01507105 0.024378896 0.164
-0.012512837 0.022201987 0.16312499
-0.0070015593 0.020897901 0.16106667
-0.0046286769 0.02032515 0.16366667
-0.014727115 0.025066767 0.164
-0.005445614 0.034353979 0.16158333
-0.0039094104 0.034189388 0.16068423
-0.0056668143 0.037351768 0.16121624
-0.0041696839 0.035830524 0.16184212
-0.045389742 0.009104263 0.16615003
-0.042593241 0.0086383726 0.16789469
-0.037708122 0.0081001604 0.16887492
-0.034527522 0.0077909394 0.16900001
-0.015769286 0.0071510044 0.16841389
-0.012465182 0.0075639961 0.16783917
-0.0075247861 0.0078272251 0.16637963
-0.0039292471 0.0082477974 0.16545647
-0.045403697 0.010730746 0.16569231
-0.043426137 0.011978635 0.16755241
-0.011452231 0.011149908 0.16874363
-0.0079235462 0.011016287 0.16728792
-0.0025537554 0.012724457 0.16560712
-0.040812857 0.017380212 0.16721737
-0.03875557 0.017774839 0.16789365
-0.012001303 0.016680827 0.16820002
-0.0027538268 0.017584626 0.16575436
-0.040805984 0.020217124 0.16800001
-0.037600741 0.020900451 0.16841176
-0.01587376 0.02404044 0.1666154
-0.01425912 0.02467881 0.16784617
-0.0031426752 0.021396358 0.16646154
-0.013946948 0.025088036 0.1664286
-0.002334048 0.034149807 0.16637501
-0.030580657 0.0044115866 0.17192858
-0.029092504 0.0029934577 0.17380004
-0.020401601 0.00359465 0.1735
-0.018555209 0.00442542 0.17122222
-0.041236918 0.0095565561 0.16999999
-0.037060812 0.0095082102 0.17084377
-0.032050855 0.0078867339 0.17132954
-0.029074125 0.0075102975 0.17390235
-0.017839935 0.0074912519 0.17215063
-0.041290864 0.012553843 0.17030992
-0.037533592 0.012489988 0.17159106
-0.032814659 0.012357256 0.17275625
-0.028822593 0.010417665 0.17400001
-0.016456626 0.01175309 0.17249249
-0.012846897 0.01284429 0.17086618
-0.0094903102 0.012341061 0.17
-0.041464325 0.016767681 0.17204165
-0.037363734 0.017141074 0.17221527
-0.033794258 0.016007748 0.1739412
-0.015334449 0.015840726 0.17300001
-0.013496716 0.016179411 0.17238176
-0.040100202 0.02004022 0.171
-0.037510846 0.022393469 0.17272225
-0.032117814 0.023840485 0.17360002
-0.024200432 0.024770692 0.17400001
-0.016207986 0.023956861 0.17275003
-0.014032366 0.023960667 0.17251612
-0.037858844 0.025281167 0.17333335
-0.02255835 0.025135599 0.17400001
-0.013562633 0.025060842 0.171
-0.027172195 0.0028605366 0.17675002
-0.022974743 0.0025838574 0.17728582
-0.028105116 0.0074520796 0.17602776
-0.021165708 0.0072387652 0.1773383
-0.019409008 0.0085422443 0.17623082
-0.030623429 0.013397831 0.17566673
-0.02847892 0.012250624 0.17733963
-0.020745981 0.011306684 0.17871869
-0.018181406 0.013013452 0.1764688
-0.041770238 0.018423628 0.17533334
-0.035605021 0.018593626 0.1754348
-0.032343525 0.017542861 0.17645401
-0.028649673 0.018456515 0.17866665
-0.021916401 0.019359559 0.1780909
-0.016821936 0.017447667 0.17758623
-0.014102485 0.018888198 0.17576006
-0.041405223 0.020508997 0.17500001
-0.03595189 0.02246662 0.17570275
-0.032613747 0.022136534 0.17718612
-0.027462894 0.022292901 0.17751861
-0.022306308 0.022665348 0.17614116
-0.017452026 0.022368468 0.17730665
-0.014143606 0.021662392 0.17518926
-0.021041958 0.02551068 0.17647623
-0.019275717 0.025477383 0.17785715
-0.025688278 0.0043982752 0.18000004
-0.024211708 0.0043796417 0.18105
-0.02607142 0.0076145194 0.18118751
-0.02390917 0.0070523457 0.18229827
-0.026607469 0.012620394 0.18155229
-0.021475848 0.013384308 0.18139543
-0.019547928 0.014171503 0.18075001
-0.027249759 0.017256474 0.18134709
-0.02177735 0.0178956 0.18215054
-0.019133242 0.018037209 0.18200004
-0.025416685 0.020830028 0.18100004
-0.022739988 0.02094093 0.18100002
-0.019361954 0.020921072 0.18168002
-0.020049581 0.02652639 0.18100001
-0.019615132 0.026169468 0.1805
-0.025148381 0.0096536744 0.185
-0.024200426 0.0091344398 0.18546665
-0.025579002 0.012885038 0.18548483
-0.024036221 0.012450263 0.1860428
-0.025760211 0.016429808 0.1853548
-0.02383841 0.016734878 0.18623334
