# .PCD v0.7 - Point Cloud Data file format
VERSION 0.7
FIELDS x y z
SIZE 4 4 4
TYPE F F F
COUNT 1 1 1
WIDTH 233
HEIGHT 1
VIEWPOINT 0 0 0 1 0 0 0
POINTS 233
DATA ascii
-0.0074939504 0.033141855 0.12815556
-0.020895706 0.028463311 0.13396819
-0.017719127 0.028264461 0.13330892
-0.013404255 0.02851106 0.13242857
-0.021065937 0.030116376 0.134
-0.017227085 0.030922415 0.13371575
-0.014352321 0.031485688 0.13364701
-0.006584804 0.033925693 0.13000001
-0.0081356438 0.036234222 0.13194117
-0.03536538 0.024597937 0.13900001
-0.032258283 0.024106968 0.13778734
-0.028296709 0.024594681 0.13890322
-0.010441585 0.024597935 0.13900001
-0.036535248 0.026624627 0.13897112
-0.032482155 0.027202243 0.13852222
-0.027500233 0.026624355 0.13888623
-0.022824222 0.026974967 0.13705567
-0.017756972 0.026947757 0.13500001
-0.011242591 0.027511815 0.13722759
-0.0076277936 0.028683249 0.13871999
-0.033859268 0.030379485 0.13900003
-0.027348956 0.030282315 0.13900001
-0.021126067 0.032405101 0.13634743
-0.017780524 0.033336848 0.13600001
-0.012911604 0.032618418 0.13670546
-0.0079701869 0.031372182 0.13877141
-0.020408833 0.036300324 0.13872226
-0.017795639 0.037021592 0.13787358
-0.013393749 0.037353091 0.13773328
-0.007345038 0.038027644 0.13727275
-0.018166505 0.040193535 0.13900001
-0.013374867 0.040485051 0.13900003
-0.0087811425 0.04065026 0.13842858
-0.040302396 0.023919204 0.14142859
-0.038892988 0.023900351 0.14211237
-0.032605786 0.02298362 0.14072224
-0.027560113 0.024591565 0.14030769
-0.010226273 0.023633322 0.14131251
-0.0082619404 0.023021532 0.14310172
-0.040316321 0.025406612 0.14025
-0.038174856 0.027522413 0.14077689
-0.032039192 0.029179981 0.140075
-0.027517708 0.02844543 0.14081311
-0.024406411 0.029438687 0.14
-0.016639281 0.028484669 0.14363161
-0.010415448 0.028151529 0.14041382
-0.0082175378 0.027308108 0.14218809
-0.037284784 0.031828642 0.14291994
-0.032300849 0.032500237 0.14143462
-0.027436312 0.032405496 0.14240845
-0.024115529 0.032754477 0.1419844
-0.011655846 0.033229169 0.14084311
-0.0067294864 0.03332657 0.14270215
-0.032585539 0.036074247 0.14299999
-0.027112797 0.035758 0.14394291
-0.02207353 0.037268911 0.1424118
-0.016745823 0.039147679 0.14089127
-0.011571057 0.037723087 0.14184041
-0.0064204126 0.037861366 0.14193672
-0.020586185 0.041545231 0.14243752
-0.01729011 0.042574979 0.14225315
-0.012306532 0.042638112 0.14242326
-0.0083749462 0.042366352 0.14268424
-0.017584864 0.046774101 0.14321306
-0.012525115 0.046415895 0.14380775
-0.0093190391 0.04578897 0.14346157
-0.0053304704 0.019813428 0.14675002
-0.0022027972 0.0189237 0.1478191
0.00010851418 0.017722344 0.149
-0.040084884 0.021858601 0.14500001
-0.03797074 0.022913354 0.1470512
-0.0059428532 0.022421246 0.14545843
-0.0031073135 0.022395292 0.14780928
-0.016092241 0.028546978 0.14635001
-0.014942514 0.029961072 0.149
-0.0059488183 0.027348597 0.14678948
-0.0043408563 0.026096141 0.14840001
-0.037551731 0.034144685 0.14501567
-0.028810183 0.034373056 0.145
-0.015497817 0.030138101 0.14833334
-0.011917341 0.033381186 0.14625001
-0.0059296745 0.032495011 0.14660376
-0.037246007 0.037446871 0.14683339
-0.032062739 0.038208425 0.14549218
-0.02765701 0.037759311 0.1462566
-0.023705365 0.038335215 0.14592423
-0.010995038 0.037074983 0.14581816
-0.0054097557 0.037271127 0.1467647
-0.0049432148 0.039804138 0.149
-0.037522614 0.040568441 0.14893751
-0.032086413 0.042017967 0.14788319
-0.02748188 0.041869279 0.14830697
-0.023350416 0.041999165 0.14767858
-0.01545364 0.043753043 0.14500001
-0.011491725 0.043173503 0.14551996
-0.0073232758 0.042465102 0.14614494
-0.0049432148 0.041054051 0.149
-0.032441285 0.045272507 0.149
-0.021372885 0.046122197 0.14867997
-0.0019326053 0.014331235 0.15380949
0.00046823302 0.014680217 0.15257144
-0.03624431 0.018554924 0.15229417
-0.034307197 0.018770628 0.15375003
-0.0018087467 0.016501004 0.15317312
0.0010337995 0.017551705 0.15188473
-0.036567062 0.021848833 0.15129203
-0.034498818 0.022440229 0.15400003
-0.00070659746 0.022827685 0.15042312
0.00097932934 0.022424616 0.15245368
-0.032803252 0.025718315 0.15400001
-0.015296449 0.029318726 0.15028572
-0.014616772 0.029626761 0.15080002
-0.0052909669 0.028903857 0.15000001
-0.0023583232 0.02773558 0.15120597
0.00051047764 0.026008984 0.15400003
-0.014509739 0.030046564 0.15100001
-0.0052669868 0.032424599 0.15114287
-0.0032857249 0.031934541 0.15278149
-0.03706307 0.03991399 0.15000001
-0.0051481924 0.037058413 0.15142858
-0.0045707361 0.037327513 0.15330002
-0.037323017 0.042903457 0.15174656
-0.031617489 0.04457346 0.15040003
-0.027909296 0.044133116 0.15014005
-0.023901992 0.04388658 0.15032563
-0.0042716088 0.0423434 0.15268418
-0.040441174 0.014103441 0.15818183
-0.039810825 0.01470509 0.15800002
-0.010621626 0.013610969 0.15875
-0.0076205852 0.013416381 0.15717264
-0.0041792393 0.013838603 0.15613893
-0.038254049 0.016680492 0.15623172
-0.033766262 0.018979536 0.15688239
-0.010276721 0.015299389 0.15900001
-0.0066905934 0.016859381 0.15825008
-0.0040899692 0.017679989 0.15643054
-0.035556875 0.02255656 0.15509377
-0.033844214 0.022748906 0.15729605
-0.0060343388 0.020569701 0.15850002
0.0020090735 0.024828866 0.155
-0.033392973 0.025541559 0.15619045
-0.00026635407 0.029542252 0.155
0.0010796109 0.028037962 0.1555139
-0.0014882679 0.033451937 0.15579268
0.00080714707 0.032096844 0.15702939
-0.0024778387 0.037523292 0.15712504
0.00019295527 0.035439488 0.1584
-0.040275201 0.0098730242 0.163
-0.037390385 0.0096951295 0.1638485
-0.032780323 0.0098437024 0.1637778
-0.02678722 0.0097064665 0.16386366
-0.024443295 0.0089877723 0.16400002
-0.01183606 0.0096187796 0.16347063
-0.040938497 0.012198627 0.16181968
-0.038498498 0.012186416 0.16284543
-0.032031406 0.011681067 0.16377857
-0.02827603 0.011397799 0.16375943
-0.024701247 0.010449498 0.164
-0.011084936 0.011437668 0.16152002
-0.038782895 0.015633624 0.16147622
-0.032808036 0.01934492 0.16075002
-0.01036874 0.016289096 0.16174999
-0.0083165439 0.018181494 0.16116248
-0.032908771 0.022117492 0.1618143
-0.0080588507 0.021030299 0.16236211
-0.032904785 0.026119672 0.16208336
-0.016294692 0.029560426 0.16360003
-0.014211211 0.029709898 0.164
-0.015765019 0.03027479 0.16266669
-0.014687724 0.030482372 0.1628
0.0011820131 0.034481868 0.16033335
-0.00050751225 0.038895972 0.16015385
-0.02635134 0.0098788217 0.16500001
-0.021933571 0.0086210007 0.16703607
-0.01912538 0.0075240373 0.16900004
-0.012843749 0.0085777352 0.16641177
-0.037056882 0.013063157 0.16572332
-0.032811828 0.01366991 0.16528749
-0.026973024 0.013219866 0.16568764
-0.023042213 0.012221925 0.16710743
-0.019783592 0.010236448 0.16900001
-0.036900036 0.016620556 0.16676141
-0.032504555 0.017453102 0.16715458
-0.027571749 0.01716313 0.16743192
-0.02384885 0.015952483 0.16846672
-0.011012482 0.018420773 0.16665626
-0.0099724568 0.018991023 0.16500001
-0.032429121 0.022187846 0.16692986
-0.027935287 0.020160254 0.16900001
-0.010762421 0.022040738 0.16772501
-0.0097679123 0.021677921 0.16611114
-0.031755615 0.027479764 0.1675636
-0.028596066 0.029388892 0.16833334
-0.022230092 0.028835788 0.1681392
-0.016945813 0.028008925 0.16706479
-0.014361135 0.02792774 0.16715384
-0.027680334 0.030169765 0.16800001
-0.022569718 0.030748634 0.16841179
-0.01972506 0.030525634 0.16850001
-0.014816916 0.03023709 0.16500001
-0.016870245 0.0049492382 0.17
-0.016953874 0.0076662558 0.17035598
-0.014596754 0.0078149587 0.17025003
-0.020999555 0.013190872 0.17136511
-0.017791023 0.01216362 0.17238232
-0.014032003 0.012370437 0.17225486
-0.030239696 0.019923024 0.17
-0.026275208 0.019181466 0.17000002
-0.022457102 0.017683856 0.17150368
-0.019101821 0.015687589 0.17385717
-0.012931239 0.017265517 0.17390911
-0.031241266 0.022632455 0.17024997
-0.027401896 0.022476828 0.17071722
-0.023024136 0.022535907 0.17215505
-0.016825821 0.024530303 0.17316668
-0.013343656 0.023826431 0.17247167
-0.031122977 0.026495254 0.17074277
-0.027402041 0.027251419 0.17121543
-0.022522893 0.02678626 0.17145987
-0.018229356 0.026670836 0.17212869
-0.01360566 0.025906686 0.17131914
-0.026325729 0.030984232 0.17171051
-0.022277871 0.031606048 0.1708158
-0.016284838 0.013934596 0.17555176
-0.014736231 0.014392253 0.17500001
-0.020655466 0.018302761 0.17505561
-0.017338909 0.017623965 0.17625904
-0.0140868 0.017555263 0.1764068
-0.020774957 0.022460721 0.1759039
-0.017597739 0.02239234 0.17677724
-0.013803671 0.021700984 0.17638099
-0.020544499 0.025425265 0.17550002
-0.019864827 0.02505541 0.17600001
