# .PCD v0.7 - Point Cloud Data file format
VERSION 0.7
FIELDS x y z
SIZE 4 4 4
TYPE F F F
COUNT 1 1 1
WIDTH 114
HEIGHT 1
VIEWPOINT 0 0 0 1 0 0 0
POINTS 114
DATA ascii
-0.07059209 -0.076958008 0.30400002
-0.068627253 -0.077204473 0.30400002
-0.068386272 -0.07128942 0.30400002
-0.068517715 -0.069317751 0.30400002
-0.071293272 -0.075750507 0.30590004
-0.066588655 -0.076784715 0.30617398
-0.064379588 -0.077847496 0.30890003
-0.070476979 -0.072705485 0.30580002
-0.067522615 -0.073168665 0.30673581
-0.070126206 -0.067623749 0.30600002
-0.068741284 -0.067476779 0.30575997
-0.068892643 -0.064576149 0.30566669
-0.065011092 -0.080236197 0.31
-0.061753307 -0.081222229 0.31178567
-0.057227612 -0.081651449 0.31376094
-0.052346289 -0.081769057 0.31400013
-0.04904848 -0.08228977 0.31400001
-0.065011092 -0.075461023 0.31
-0.062264938 -0.077426605 0.31211117
-0.057422876 -0.078550257 0.3140001
-0.053121563 -0.078834921 0.31400007
-0.066315629 -0.071770683 0.31178948
-0.063794658 -0.073110864 0.31300005
-0.066947997 -0.067498684 0.31248975
-0.064517274 -0.067793623 0.31361541
-0.070694335 -0.061506055 0.31242856
-0.068419822 -0.063497826 0.31351432
-0.064831674 -0.064979173 0.31400001
-0.071383335 -0.05848946 0.31333339
-0.069923028 -0.059633255 0.31400001
-0.078536466 -0.080496661 0.31900001
-0.050353888 -0.082168773 0.31500003
-0.048677906 -0.081630088 0.31583333
-0.078924403 -0.079462178 0.31900001
-0.060441338 -0.075911999 0.31500003
-0.057610288 -0.076320618 0.31499991
-0.052165136 -0.077087544 0.31632143
-0.047700446 -0.07769575 0.31718338
-0.061911568 -0.072056815 0.31687504
-0.057554245 -0.072457969 0.3174507
-0.052872837 -0.07351663 0.31769055
-0.048843164 -0.073863849 0.31853849
-0.063092865 -0.067891985 0.31770214
-0.057070903 -0.069634572 0.31900001
-0.067109182 -0.062214091 0.31707412
-0.064148344 -0.063428253 0.31877285
-0.070907764 -0.056674458 0.31514293
-0.069335096 -0.057920486 0.31743753
-0.069633625 -0.054548092 0.31850001
-0.081371047 -0.085165232 0.32100001
-0.047539487 -0.085165232 0.32100001
-0.081461243 -0.082348004 0.32055557
-0.078951478 -0.082045421 0.32033336
-0.048073914 -0.084174886 0.32040003
-0.081736885 -0.077452555 0.32154009
-0.078904428 -0.076588131 0.32136369
-0.080705568 -0.074028224 0.32400003
-0.078655444 -0.073714554 0.32328573
-0.055174351 -0.070371725 0.32000002
-0.052551754 -0.071256407 0.32133341
-0.049228664 -0.071851768 0.32269999
-0.061272196 -0.066459216 0.32055178
-0.057678156 -0.067320652 0.32188049
-0.052583512 -0.067404456 0.32312307
-0.049387131 -0.067888655 0.32388231
-0.065897539 -0.06051331 0.32000002
-0.06235138 -0.062145203 0.32126528
-0.058096763 -0.064159155 0.32399997
-0.054550655 -0.064421825 0.324
-0.067276642 -0.057424247 0.32066002
-0.06397628 -0.057833757 0.32276472
-0.081265159 -0.091021925 0.32900003
-0.085019872 -0.086753443 0.32500002
-0.083002798 -0.088435151 0.32554546
-0.085536778 -0.075220764 0.32833338
-0.083952427 -0.07509239 0.32700002
-0.08599671 -0.072315872 0.3288421
-0.082474671 -0.072126456 0.32752955
-0.079700559 -0.071674459 0.32740003
-0.047266152 -0.071960613 0.32500002
-0.086285912 -0.068083279 0.32900003
-0.082383685 -0.068651155 0.32900009
-0.079664789 -0.068972372 0.32900006
-0.047950689 -0.067813694 0.32562959
-0.060872246 -0.061627857 0.32550001
-0.057531707 -0.062015735 0.32584447
-0.052769288 -0.06250263 0.32581046
-0.048977755 -0.062870838 0.32724333
-0.080723606 -0.091064692 0.33066669
-0.078451805 -0.091453992 0.3308889
-0.080734834 -0.089129835 0.33144447
-0.078611068 -0.088421099 0.33149999
-0.085627779 -0.065973148 0.33091664
-0.082303554 -0.066268831 0.33060002
-0.079730205 -0.06659057 0.33060002
-0.085532956 -0.063918963 0.33400002
-0.081832655 -0.062865637 0.33192107
-0.079236768 -0.062620305 0.33115387
-0.065499313 -0.095846474 0.33850002
-0.062534437 -0.096526124 0.33800003
-0.057808153 -0.096800148 0.33800006
-0.053954408 -0.096708834 0.33799997
-0.065899871 -0.093539283 0.33830002
-0.06285172 -0.093594171 0.33823329
-0.057874937 -0.093334548 0.33800006
-0.054452639 -0.094103478 0.33750004
-0.075341724 -0.096563473 0.34333336
-0.072292201 -0.097096279 0.34276003
-0.069265582 -0.096713983 0.34281817
-0.075488016 -0.094056308 0.34400001
-0.072975069 -0.094243579 0.3435556
-0.069808617 -0.094475754 0.34350002
-0.075427756 -0.093024455 0.34500003
-0.073386103 -0.093131557 0.34557903
