# .PCD v0.7 - Point Cloud Data file format
VERSION 0.7
FIELDS x y z
SIZE 4 4 4
TYPE F F F
COUNT 1 1 1
WIDTH 139
HEIGHT 1
VIEWPOINT 0 0 0 1 0 0 0
POINTS 139
DATA ascii
0.06750568 0.023717355 0.13244973
0.06757284 0.02644632 0.13290295
0.070117056 0.025664516 0.13333334
0.065460287 0.019888764 0.13880001
0.064494424 0.022563068 0.13798149
0.065724127 0.022401493 0.13708068
0.064447545 0.026055265 0.13850002
0.066668898 0.027681945 0.1369538
0.071477026 0.028355129 0.13733965
0.068512186 0.031628367 0.13703637
0.070428409 0.031236615 0.13694736
0.072335958 0.036145218 0.13900004
0.059694491 0.017015137 0.14400001
0.062514998 0.018414136 0.1431735
0.065393366 0.019500364 0.14116669
0.06375894 0.022180572 0.14137587
0.065080561 0.023759386 0.14137499
0.064215913 0.027311468 0.14200008
0.065562755 0.028928392 0.14077552
0.064253159 0.032216419 0.14305885
0.066504329 0.032638051 0.14158589
0.073781423 0.033403169 0.1412982
0.075278796 0.034634825 0.14300001
0.064675592 0.035655323 0.14400001
0.066881448 0.037014656 0.14282247
0.072461225 0.037081987 0.14255103
0.07508558 0.035562299 0.14300001
0.0672739 0.040462799 0.14400004
0.072828233 0.040013779 0.14400001
0.053179808 0.014897815 0.14850001
0.053333621 0.017112745 0.14821279
0.057526525 0.017602848 0.14693575
0.061112013 0.0184389 0.14522229
0.054116674 0.020545358 0.149
0.05885981 0.021700807 0.148101
0.061788537 0.022756539 0.1461349
0.062804639 0.027335778 0.14712787
0.063501313 0.032252684 0.14742975
0.069419406 0.0344139 0.14500001
0.06391114 0.037028596 0.14816958
0.066133395 0.038235221 0.14591527
0.072026707 0.038048726 0.14591429
0.064990133 0.041383695 0.147
0.067430563 0.04250991 0.14619532
0.072660178 0.042201474 0.14737651
0.075296603 0.04261113 0.14900002
0.053763092 0.013656861 0.15247691
0.055767946 0.012891662 0.15333332
0.062710568 0.012996803 0.15375757
0.052914049 0.01885107 0.15188892
0.056617282 0.017729541 0.15059465
0.053119771 0.022171417 0.15319556
0.057005223 0.023059737 0.15118568
0.05191987 0.025850203 0.1524054
0.057644404 0.027418975 0.15295234
0.061162855 0.027923042 0.1514286
0.05948839 0.030945282 0.15392311
0.06227142 0.032365166 0.15184148
0.063557342 0.03800166 0.15155697
0.065343589 0.039208315 0.15000001
0.071910463 0.0399785 0.15000001
0.080543041 0.039636891 0.15300001
0.072971538 0.042086247 0.150561
0.059737656 0.0097686406 0.15700001
0.063586697 0.0089680711 0.15835714
0.06590949 0.0087265633 0.15793549
0.058194332 0.012677207 0.15566087
0.062478472 0.011544453 0.15723887
0.065783024 0.01097247 0.1569048
0.058849074 0.015604947 0.15650001
0.060630392 0.015875777 0.15825
0.054268181 0.023998303 0.15524998
0.055131938 0.024802625 0.15549999
0.053819291 0.027865887 0.15624996
0.055598546 0.027689023 0.15680489
0.061603494 0.029661404 0.15528572
0.053761981 0.031562481 0.1583485
0.057400465 0.032416567 0.15707485
0.061394762 0.032540038 0.15647922
0.058650758 0.03671379 0.1577538
0.062685907 0.037375834 0.15697181
0.078262411 0.0043287831 0.16364588
0.082397319 0.004155769 0.16370174
0.085773133 0.0040593278 0.16400002
0.063765384 0.0076394049 0.16271074
0.065113485 0.0058963168 0.16400002
0.078312896 0.0057763457 0.16400002
0.081981741 0.00573547 0.16400002
0.08594694 0.0054418393 0.16400003
0.062042546 0.013699022 0.16010001
0.061743915 0.015461026 0.16000001
0.082840323 0.023851169 0.16356516
0.085272014 0.02323137 0.16375001
0.081603423 0.025052212 0.162
0.053771552 0.033896398 0.16142108
0.055971555 0.034644578 0.16
0.064374804 0.0042462284 0.16686666
0.067026906 0.0030103107 0.16837214
0.072431661 0.0031934816 0.1679768
0.075917572 0.0038271898 0.16558821
0.083248369 0.0042849928 0.16500001
0.064338215 0.0055723083 0.16500001
0.066216238 0.005322346 0.16725002
0.073142625 0.0067419382 0.16825001
0.077223167 0.007913121 0.16666661
0.082783915 0.0080730831 0.16610502
0.086385906 0.0080627799 0.16593024
0.072734483 0.011405864 0.16826087
0.078036532 0.011133198 0.16810144
0.082193077 0.011450691 0.16852173
0.087168269 0.012062066 0.16819052
0.074694753 0.019844167 0.16833335
0.075389624 0.01970114 0.16866669
0.087991543 0.018050978 0.16899998
0.074212275 0.021042665 0.16736366
0.077476189 0.0218383 0.16717391
0.082473569 0.022015072 0.16650645
0.087109707 0.021330951 0.16764997
0.068072103 0.0025005762 0.17016798
0.070265926 0.0038586261 0.16999999
0.068885572 0.0060108737 0.17002861
0.072091132 0.007802994 0.17001356
0.073794536 0.012540604 0.17114288
0.077490561 0.013109975 0.17048061
0.082838506 0.01325243 0.17011343
0.086782172 0.013451342 0.17069438
0.073755734 0.017507695 0.17268239
0.07745599 0.01741823 0.17232758
0.082404837 0.017609058 0.1712147
0.087384142 0.017504577 0.17144167
0.090575702 0.017368913 0.17205882
0.073153697 0.020653373 0.17028573
0.079220429 0.020898946 0.17305265
0.081667691 0.020722708 0.1708293
0.085571207 0.020512721 0.17072728
0.072261631 0.014407158 0.17500001
0.069991603 0.015428672 0.17500001
0.071808517 0.016490463 0.1750001
0.079639241 0.021009162 0.17500001
