# .PCD v0.7 - Point Cloud Data file format
VERSION 0.7
FIELDS x y z
SIZE 4 4 4
TYPE F F F
COUNT 1 1 1
WIDTH 215
HEIGHT 1
VIEWPOINT 0 0 0 1 0 0 0
POINTS 215
DATA ascii
0.0071665072 0.010720452 0.149
0.0041707158 0.017533461 0.149
0.0048955041 0.020819167 0.149
0.0054753344 0.020867487 0.14900002
0.0080749812 0.0094342427 0.15164709
0.0082088569 0.012260617 0.15103573
0.012215166 0.01455053 0.15333332
0.019309519 0.013981515 0.15400003
0.022462554 0.014183913 0.15312192
0.027550412 0.014336181 0.15230002
0.03051039 0.014270201 0.15340002
0.003190601 0.01714527 0.15179722
0.0073067648 0.017360363 0.15142916
0.012144762 0.016120715 0.15338469
0.019564424 0.015762134 0.15400003
0.022354178 0.016789695 0.15351665
0.027098132 0.016932288 0.15284216
0.030490065 0.015355192 0.15380001
0.0044128029 0.021885207 0.1524286
0.0070202905 0.021718621 0.15327126
0.022662804 0.02073656 0.15338464
0.027133556 0.020069517 0.15400001
0.0049099606 0.025646225 0.15400001
0.0060045193 0.026221083 0.15334284
0.00095785898 0.01398135 0.15746875
0.009214364 0.014084268 0.155
0.013364389 0.014127848 0.15555997
0.016936079 0.013970854 0.15518185
0.028824707 0.01396985 0.15750001
0.031376693 0.012997615 0.15721948
0.001546837 0.016908614 0.1555263
0.0099683385 0.018314902 0.155
0.012710162 0.018150602 0.15569182
0.017324323 0.017353695 0.1572309
0.022437019 0.018533047 0.15510525
0.027988186 0.018642571 0.15575005
0.03121241 0.016828261 0.15681134
0.0026759005 0.022767611 0.15636361
0.0083633559 0.023397578 0.15502933
0.012516537 0.022107728 0.15733542
0.016143916 0.022465829 0.15880431
0.022405282 0.02254428 0.15663692
0.027373629 0.022539776 0.15663977
0.030335838 0.023162002 0.15792304
0.0032095278 0.02634882 0.15790698
0.0079125669 0.027463295 0.15697667
0.010705962 0.02666585 0.15821874
0.022826998 0.026682483 0.15789427
0.02729889 0.026657559 0.15875693
0.03014145 0.025941787 0.15900002
0.0068518897 0.030558847 0.15878947
-0.00024152016 0.0092544779 0.16400002
0.0005928732 0.0094716828 0.16350001
0.0089516388 0.0090075545 0.16400002
0.029524477 0.0086396756 0.16307695
0.030671868 0.0092611546 0.16188462
-0.00038937209 0.012617574 0.16242857
0.0012549395 0.012217759 0.16165152
0.029509876 0.011848424 0.16146673
0.030824896 0.010894482 0.16016129
-0.00061003561 0.015238591 0.16100001
0.0022475056 0.015143943 0.16000001
0.017272878 0.019629017 0.16023532
0.031922884 0.018965889 0.16140909
0.0012097775 0.024742926 0.16000001
0.012510329 0.023667041 0.15999998
0.017700924 0.022586735 0.1604968
0.02014525 0.024672527 0.16066669
0.031643085 0.02230194 0.16100009
0.0030377081 0.028354371 0.16038184
0.0087543493 0.029615318 0.16006669
0.012806199 0.027744869 0.16164097
0.016522938 0.027207727 0.16253763
0.022353876 0.028598091 0.16110171
0.027540574 0.028892493 0.16086362
0.030922927 0.027330913 0.16130306
0.0034729096 0.032396588 0.16254719
0.0079364097 0.032700561 0.16138026
0.011337329 0.032047737 0.16240257
0.015806409 0.030906383 0.16400002
0.023246307 0.031955861 0.16278882
0.027066534 0.031786572 0.16309428
0.030396016 0.031686544 0.16400002
0.0036111227 0.035898492 0.16400003
0.0077521848 0.036688585 0.16362642
0.011009004 0.035942227 0.16400002
0.0084633753 -0.00053705461 0.16900001
-0.0070456835 0.004692256 0.16900001
0.0086671887 0.0025496113 0.16824327
0.032507893 0.0041493955 0.16849999
-0.0062521813 0.0071229539 0.16807419
-0.0029274763 0.0078384206 0.16688079
0.00078053505 0.0089873839 0.16550002
0.0090532359 0.0071907425 0.16630435
0.029248599 0.0069610057 0.16572727
0.031337418 0.0062675974 0.16720688
-0.0052987742 0.010880656 0.16900001
-0.0029339206 0.011862914 0.16772449
0.0012475832 0.010266406 0.16500001
-0.0026366829 0.015986359 0.16846155
0.01829082 0.02812135 0.16562963
0.020468248 0.029260119 0.16575001
0.031918291 0.029058069 0.16563638
0.0035928146 0.034425896 0.16557145
0.0051420331 0.034315243 0.16550002
0.013506969 0.03292945 0.16588545
0.017528417 0.032524053 0.16674016
0.021824354 0.032710306 0.16682762
0.028192129 0.033636928 0.1655695
0.031439338 0.032641467 0.16683023
0.0086642522 -0.0013959646 0.17227276
-0.0065620821 0.0033534737 0.17301345
-0.0042564804 0.0049016136 0.17400001
0.0089790486 0.0029764525 0.17144118
0.010003909 0.0042002178 0.17300001
0.033929549 0.0028760855 0.17195553
0.035485703 0.0025499046 0.17330772
-0.0051923045 0.005340226 0.17
-0.0036991481 0.0053989952 0.17333335
0.0090142945 0.0063680187 0.171
0.010145558 0.0063380003 0.17341667
0.03344471 0.0062019401 0.1706316
-0.0061966102 0.012539156 0.17145592
-0.0035501574 0.013709349 0.17055002
-0.0057680747 0.015719354 0.1735
-0.0034995808 0.017637435 0.17144258
-0.0028201989 0.021826467 0.17277776
0.0092221564 -0.0055351541 0.17900001
-0.00052878761 -0.00018057713 0.17775001
0.0023202086 -0.00042688622 0.17807406
0.0092186518 -0.0033680743 0.17852172
0.024086453 -0.0022135237 0.17899995
0.027557574 -0.0018003088 0.17850356
0.032370232 -0.0015541374 0.17803366
0.035811562 -0.00094280764 0.17807405
-0.0053321221 0.002530775 0.175
-0.0024719704 0.0026398005 0.17679077
0.0019004394 0.0022576884 0.17841387
0.028126404 0.00050212996 0.17892857
0.032269701 0.0014570807 0.17837647
0.036653247 0.0017414994 0.17640002
-0.0015401476 0.0058914036 0.17836581
0.0022537776 0.0089575453 0.17710871
0.0030565422 0.010505272 0.17684214
-0.0061884625 0.018092509 0.17597681
-0.0048788525 0.018955326 0.17500003
-0.0057759676 0.022055255 0.17802173
-0.0041389898 0.023149792 0.17681819
-0.0027871716 0.026906833 0.17730433
0.0089479415 -0.0058139348 0.18066669
0.01011683 -0.0077712485 0.18000001
0.0043753032 -0.0014667338 0.1834348
0.0066640712 -0.0032012817 0.18309622
0.01011683 -0.0014962372 0.18000001
0.019288471 -0.0023975056 0.1826957
0.022041909 -0.0019242167 0.18101999
0.025390891 -0.00028014992 0.18000001
0.034633152 -0.0028096116 0.18000001
0.036676183 -0.00086387189 0.18000001
0.0036996179 0.0033981192 0.18123917
0.006216513 0.0029534898 0.18166669
0.010256706 0.00051816989 0.18040001
0.019449852 0.0015868541 0.18347622
0.022443924 0.002446522 0.18253584
0.027518533 0.002788591 0.18085976
0.031030186 0.003319469 0.17999999
-0.00053609692 0.006996918 0.18000002
0.0028316719 0.0069307671 0.1808311
0.0055962889 0.0072285463 0.18285719
0.024001129 0.0056994865 0.18364707
0.027702479 0.0064556031 0.1827313
0.0086272396 0.014307703 0.18320003
0.011211097 0.012975814 0.18219452
0.0076445658 0.015483687 0.18373337
0.011736915 0.015052984 0.1825
0.02824246 0.0159238 0.18400002
-0.0060146563 0.024531314 0.1806
0.012733158 -0.0067071882 0.18805297
0.016364777 -0.0056311907 0.18668747
0.0054626968 -0.00063921348 0.1855
0.012635838 -0.0036499002 0.1887501
0.016811311 -0.0025410741 0.18657553
0.0047140862 0.0023139534 0.18561542
0.0052739922 0.0020474959 0.18643481
0.017575884 0.0015373912 0.18798465
0.020296806 0.0049115173 0.185
0.0055983616 0.0071827052 0.18500002
0.019816294 0.008082252 0.18900001
0.022370536 0.0076471306 0.18605846
0.026209066 0.0083186189 0.18571873
0.0082613304 0.013541494 0.18758333
0.013067499 0.013643167 0.18638095
0.017395152 0.013824271 0.18777919
0.022571148 0.012558574 0.18749721
0.026942344 0.012675675 0.18672675
0.0081821019 0.015262332 0.18528572
0.01174771 0.015110437 0.185
0.019996837 0.015110437 0.185
0.022811271 0.015292442 0.18673338
0.026944237 0.015423208 0.18581823
0.012941264 -0.0016423968 0.19056514
0.013218946 0.0022666955 0.19310352
0.016930938 0.0034731301 0.19069351
0.013208461 0.0080722496 0.19400015
0.017551307 0.0076168408 0.19295666
0.0085839638 0.012253228 0.19000001
0.013590648 0.011477777 0.1917273
0.017673299 0.011570808 0.1914615
0.020087605 0.01101764 0.19100001
0.014648698 0.0047554281 0.19500002
0.015070275 0.0048608221 0.19500001
0.013721718 0.0071310969 0.19503923
0.015087449 0.0068357028 0.19522224
0.036574084 0.013597157 0.19857149
0.037508413 0.014389867 0.2
