# .PCD v0.7 - Point Cloud Data file format
VERSION 0.7
FIELDS x y z
SIZE 4 4 4
TYPE F F F
COUNT 1 1 1
WIDTH 189
HEIGHT 1
VIEWPOINT 0 0 0 1 0 0 0
POINTS 189
DATA ascii
-0.039051395 0.024755901 0.13233334
-0.045443643 0.027739141 0.13257143
-0.041991867 0.028023256 0.13274188
-0.039665371 0.02727503 0.1336471
-0.045121394 0.030861666 0.134
-0.042430803 0.031128734 0.13387328
-0.039834384 0.030064993 0.134
-0.050421394 0.024697173 0.13800001
-0.0495377 0.024814395 0.13700001
-0.039420847 0.024462124 0.13820836
-0.050695427 0.026222602 0.13823079
-0.048293676 0.026538426 0.13642858
-0.04032376 0.028131446 0.13628572
-0.039299257 0.027424762 0.13708732
-0.045499336 0.033117115 0.13625
-0.041383285 0.033409569 0.13584217
-0.039319824 0.032271534 0.13789436
-0.045421116 0.036282357 0.13887501
-0.04190414 0.037175372 0.13779898
-0.039718028 0.035469074 0.13900001
-0.040651493 0.041326214 0.13884616
-0.039968453 0.041629501 0.13900003
-0.052380137 0.013629548 0.14400001
-0.052380137 0.015030481 0.14400001
-0.057078581 0.023686294 0.14183041
-0.053186946 0.024143163 0.14106147
-0.040690985 0.024075663 0.142
-0.037366223 0.023374256 0.14232251
-0.032179009 0.022218062 0.14394997
-0.029731723 0.020750955 0.14400001
-0.060085271 0.026996778 0.14400001
-0.057508864 0.027028831 0.14348882
-0.053419292 0.026631756 0.14225495
-0.038226731 0.027476715 0.14193785
-0.058830269 0.030586669 0.14400001
-0.038806867 0.032139111 0.1425954
-0.045240603 0.038644373 0.14050001
-0.041279569 0.03832389 0.14019047
-0.039273869 0.037575521 0.14191814
-0.04520575 0.040839508 0.142
-0.04203105 0.04228187 0.14149678
-0.039468218 0.041367676 0.1429303
-0.041171722 0.046223328 0.14353338
-0.052894127 0.013414713 0.1455909
-0.062352762 0.019133173 0.14899999
-0.053842138 0.017633554 0.14805882
-0.030112782 0.019633971 0.147
-0.028495522 0.019544745 0.14693019
-0.062764585 0.021131046 0.14899999
-0.053524476 0.024762616 0.1486
-0.035953712 0.024471859 0.14571998
-0.031882294 0.023563622 0.14530675
-0.028589712 0.022569604 0.14714289
-0.060334593 0.028704081 0.14500001
-0.057565108 0.028995622 0.14525312
-0.052544441 0.026808504 0.14626665
-0.036359418 0.027484721 0.1468153
-0.032162238 0.027333045 0.14699501
-0.029338017 0.026409317 0.14807351
-0.060934324 0.03268566 0.14842859
-0.057438504 0.032453973 0.14754193
-0.054088917 0.03258596 0.14687298
-0.037059795 0.032403223 0.14721937
-0.03135781 0.031687904 0.14860569
-0.057088614 0.035572916 0.14893335
-0.053508241 0.036222611 0.14883333
-0.038247958 0.037676144 0.14727278
-0.030039288 0.03512165 0.149
-0.045220364 0.044758748 0.14500001
-0.040378831 0.044131786 0.145
-0.038812865 0.042361438 0.14725192
-0.045185059 0.046462819 0.14666668
-0.041931812 0.047900844 0.14604801
-0.039277092 0.047453985 0.14722778
-0.061477832 0.018190918 0.15284419
-0.055535514 0.017724099 0.15000001
-0.054166872 0.017648268 0.150125
-0.032005399 0.017575182 0.15225457
-0.029154319 0.018025488 0.15130438
-0.062109187 0.022018416 0.15186566
-0.055852138 0.022898471 0.15356669
-0.05434075 0.0233845 0.15137501
-0.032369327 0.020055333 0.15200001
-0.027511932 0.022845672 0.15137501
-0.055493802 0.026793823 0.15109093
-0.054017179 0.027358176 0.15219998
-0.03526739 0.028912103 0.15000001
-0.033321649 0.029317468 0.15000001
-0.02820297 0.028137695 0.15118375
-0.060764693 0.034506105 0.15000001
-0.059692331 0.034207612 0.14999999
-0.035787243 0.033290517 0.15104547
-0.032290537 0.032864258 0.15053625
-0.028866448 0.032162875 0.15248853
-0.061213944 0.037608638 0.15315996
-0.057084169 0.037711114 0.15118243
-0.053785551 0.038051229 0.15047371
-0.036481373 0.037614789 0.15282598
-0.031921163 0.037364405 0.15228392
-0.029652493 0.037325151 0.15293752
-0.056998093 0.041407477 0.15357453
-0.053742796 0.042078312 0.15326917
-0.037389588 0.042608641 0.15175533
-0.032462079 0.041303623 0.1539387
-0.029675955 0.041039277 0.15364288
-0.062329449 0.014274229 0.15880002
-0.036725614 0.014302094 0.15711769
-0.060930967 0.017638907 0.15697302
-0.059147429 0.017328776 0.1556
-0.035998788 0.016221775 0.15660609
-0.034035176 0.016963262 0.15515786
-0.061023537 0.022696216 0.15649216
-0.057573121 0.02340031 0.1567
-0.060595889 0.025457421 0.15800002
-0.059297331 0.025877334 0.15900001
-0.053616829 0.028326005 0.155
-0.036149755 0.034776673 0.155
-0.028045304 0.033485424 0.15578438
-0.062664516 0.039049193 0.155
-0.035601079 0.037070274 0.15506454
-0.031217273 0.038395505 0.15523998
-0.028450266 0.037503637 0.15655862
-0.060909305 0.041248258 0.15533331
-0.057623707 0.043662809 0.15514085
-0.036123145 0.042864718 0.15531762
-0.063599601 0.0096723503 0.16400002
-0.038647648 0.0099382671 0.164
-0.063292027 0.012273175 0.16287757
-0.059655156 0.011445135 0.164
-0.038179658 0.012599786 0.16323079
-0.036688831 0.017450305 0.16183336
-0.060705528 0.022511808 0.15999998
-0.036635414 0.020459661 0.16100001
-0.060375389 0.025720784 0.16
-0.055804599 0.028897356 0.16147621
-0.054611564 0.029789928 0.16120002
-0.055300735 0.030118637 0.16100001
-0.054778628 0.030118637 0.16100001
-0.02770799 0.034985818 0.163
-0.02775521 0.036954291 0.16286673
-0.062050357 0.0089613246 0.16647993
-0.058135193 0.009361512 0.16699995
-0.051962677 0.0092898021 0.16553031
-0.046950363 0.0084834322 0.16684666
-0.042986792 0.0079141837 0.16874994
-0.038538307 0.0091765551 0.16672915
-0.062198628 0.011944243 0.16682464
-0.057821244 0.012266101 0.16754921
-0.052558083 0.012417298 0.1662229
-0.048091955 0.012165103 0.16745025
-0.0409077 0.010678399 0.16725001
-0.037770722 0.01171279 0.16615716
-0.060583331 0.015516245 0.16900001
-0.056404099 0.016323553 0.1687727
-0.05245883 0.016438168 0.16861103
-0.048430581 0.016561419 0.16854647
-0.060020547 0.024754256 0.16800001
-0.06037781 0.02531264 0.16900001
-0.057211164 0.027485009 0.16685188
-0.054051716 0.027817687 0.16763048
-0.055537622 0.030131195 0.16500001
-0.05493566 0.030064309 0.16500001
-0.041724078 0.0084670903 0.17000003
-0.038499594 0.0088317478 0.17
-0.057641711 0.014283423 0.16999999
-0.045954794 0.013153625 0.17049314
-0.043847807 0.011975453 0.17092127
-0.060796194 0.017983206 0.17169493
-0.058001895 0.017833117 0.17112958
-0.053140342 0.01870572 0.17041332
-0.047045235 0.017954677 0.17153195
-0.044556361 0.016407019 0.17236367
-0.061141327 0.022649964 0.17321128
-0.057465319 0.022971803 0.17322522
-0.052745566 0.022701098 0.17243764
-0.048018035 0.022469388 0.17323703
-0.044954069 0.024791937 0.17400001
-0.060645521 0.02543948 0.17246668
-0.057883613 0.026076578 0.17232899
-0.05322089 0.025865097 0.1722029
-0.048095465 0.025317296 0.17333338
-0.04497622 0.025070224 0.17300001
-0.045585897 0.019053867 0.17503999
-0.044588167 0.019344475 0.17500001
-0.06063775 0.022420574 0.175125
-0.058619805 0.022321522 0.175
-0.045688398 0.022609651 0.17584218
-0.044447951 0.022629609 0.17622225
-0.047387868 0.025454639 0.17500001
