# .PCD v0.7 - Point Cloud Data file format
VERSION 0.7
FIELDS x y z
SIZE 4 4 4
TYPE F F F
COUNT 1 1 1
WIDTH 205
HEIGHT 1
VIEWPOINT 0 0 0 1 0 0 0
POINTS 205
DATA ascii
0.043684676 -0.0016083199 0.16812737
0.043006681 0.0033515871 0.16825241
0.047385801 0.0037763226 0.1684828
0.0502696 0.0035080765 0.169
0.059614725 0.0032384014 0.16900001
0.06254486 0.0031956942 0.1687059
0.067434952 0.0034166249 0.16834746
0.07060618 0.0033906384 0.16900001
0.043345165 0.0070938272 0.16830176
0.047246065 0.0059461882 0.16882697
0.059371144 0.0090903584 0.16900001
0.064423382 0.0061314898 0.16870372
0.066922024 0.0059762876 0.16882354
0.070410445 0.0054262518 0.16900001
0.042903826 0.010668643 0.16807695
0.041969359 -0.0009104702 0.17266667
0.045101289 -0.00045098772 0.171
0.070783511 -0.00039581943 0.17278573
0.041649152 0.0019515164 0.17201996
0.046915159 0.0023612529 0.17036362
0.052908666 0.0034273618 0.17035869
0.057429902 0.0032662756 0.17151365
0.062264744 0.0047173048 0.17006668
0.068988673 0.0013262775 0.17195654
0.070717797 0.001056419 0.17070968
0.041607745 0.0076941694 0.17143333
0.047690973 0.0080520716 0.17152177
0.052549511 0.0075502861 0.17249444
0.057909533 0.0070475955 0.17277107
0.062492069 0.0075171948 0.17137229
0.067687221 0.0081761656 0.17082068
0.07046704 0.0065898756 0.17080002
0.043108672 0.012473707 0.17228073
0.046827778 0.012205001 0.17297509
0.051387265 0.010907681 0.17374282
0.059942037 0.011806675 0.17318752
0.062228315 0.01205043 0.17267844
0.066607073 0.012141225 0.17263168
0.043272741 0.015461421 0.17400001
0.04568094 0.015340507 0.17400001
0.061866716 0.015979594 0.17300001
0.066206068 0.015340507 0.17400001
0.041349299 -0.00087378081 0.17756
0.069512464 -0.0010988954 0.17677419
0.070968971 -0.0016714614 0.17767997
0.041757964 0.00099536835 0.17623529
0.057648316 0.0043622763 0.17500001
0.068888381 0.0011117625 0.17704168
0.041175175 0.009920802 0.178
0.054952655 0.009753597 0.17500001
0.057514932 0.0085723186 0.17554723
0.071494855 0.0088612409 0.17524999
0.041818656 0.013106801 0.17676668
0.049032584 0.013604647 0.17562863
0.052706923 0.012788508 0.17593476
0.057400174 0.012081393 0.17715514
0.062661611 0.013365002 0.1754286
0.067979753 0.013518663 0.17565796
0.07102228 0.012403598 0.17709304
0.04359271 0.017268488 0.1760488
0.04739859 0.01739586 0.17643119
0.05250046 0.016721899 0.17788896
0.055392262 0.015647924 0.17880002
0.063208275 0.017891789 0.17734621
0.067098565 0.017096771 0.17732348
0.070534244 0.01523146 0.17600001
0.04447316 0.021454744 0.17807998
0.047123011 0.021325933 0.1786118
0.063277043 0.020149425 0.17855556
0.065448016 0.020376787 0.17900001
0.037424915 -0.0057229172 0.18400002
0.071214676 -0.0052302415 0.18300001
0.03792879 -0.0036915089 0.18400002
0.04180339 -0.0029077628 0.18180488
0.048626523 -0.0015275092 0.18325002
0.069393121 -0.0016083334 0.18031253
0.070933521 -0.0038911274 0.18080555
0.040581983 0.00054709229 0.1805
0.048903488 0.00086987234 0.18221429
0.050491732 0.0021878921 0.18300001
0.068449289 0.00095994491 0.18045457
0.041289337 0.014331468 0.180875
0.058601029 0.014184195 0.18042856
0.060388602 0.014225669 0.180875
0.042125359 0.017790185 0.18186004
0.052333914 0.018621838 0.18057148
0.057957418 0.01720163 0.18219994
0.061566491 0.017729683 0.18225002
0.068323866 0.019751078 0.18080001
0.070282891 0.019291962 0.18200001
0.043094512 0.022151941 0.18319672
0.047967464 0.023577413 0.1804572
0.052589819 0.022450192 0.18206196
0.057518225 0.02143118 0.18355559
0.063805036 0.022636691 0.18153168
0.066999175 0.022715118 0.1814919
0.033575211 -0.0072407024 0.18824042
0.037098516 -0.0065971557 0.18725927
0.040486407 -0.0058384784 0.18681817
0.047295637 -0.0064559071 0.18678574
0.073463924 -0.0064477385 0.18602856
0.075917423 -0.007737936 0.18735002
0.033635497 -0.0027945423 0.18800005
0.037525173 -0.0020098654 0.18633342
0.0405453 -0.0023108025 0.18587498
0.04716542 -0.0048725139 0.18520001
0.070691474 -0.004987434 0.185
0.03321911 0.0023211373 0.18740624
0.038455039 0.0024499218 0.18690392
0.040560458 0.0026633828 0.18699993
0.049993664 0.001611867 0.185
0.033406612 0.0062450888 0.18805262
0.039007425 0.0063109533 0.1885
0.04078785 0.00652037 0.18857898
0.041518882 0.018848972 0.18520001
0.058411513 0.018602751 0.18655999
0.062209491 0.01735788 0.18700001
0.072885223 0.01902389 0.18677779
0.043142334 0.023028992 0.18520693
0.034100864 -0.01094913 0.19270591
0.037675343 -0.011208749 0.19304219
0.041130316 -0.011550974 0.19334376
0.048592664 -0.011064478 0.19123532
0.068590552 -0.012684975 0.19388421
0.072423697 -0.011789214 0.19301842
0.075589366 -0.011153031 0.19306669
0.034286566 -0.0095582595 0.19157144
0.037696268 -0.0089640804 0.19261962
0.04105432 -0.0086412672 0.19362071
0.047936175 -0.0088512404 0.19115387
0.072859533 -0.0090757478 0.1937084
0.076400235 -0.0092388149 0.19303706
0.034708768 -0.0021338975 0.19000004
0.035543401 -0.0018304951 0.19008577
0.034528062 0.0027235334 0.19131997
0.0361652 0.0026534144 0.19209337
0.034208193 0.0082723983 0.19222575
0.037438318 0.0075796591 0.19188894
0.041012671 0.0082152933 0.19088463
0.034516618 0.010362715 0.19150001
0.039319988 0.011668109 0.19230552
0.040980816 0.012412735 0.19262739
0.041305892 0.01576251 0.19300002
0.058914706 0.018819638 0.19000003
0.062743649 0.019215735 0.19000003
0.053292971 -0.019078275 0.19900003
0.06197774 -0.015065871 0.19760001
0.043731563 -0.011676244 0.19538981
0.047039725 -0.011912928 0.19677213
0.050372582 -0.013479649 0.19780003
0.063025907 -0.012546898 0.19688879
0.066493846 -0.011674808 0.19526426
0.077663571 -0.01096768 0.19576927
0.043913182 -0.007971976 0.19690612
0.046497073 -0.0079516768 0.1972982
0.06416025 -0.0086726174 0.19807695
0.067561835 -0.0075742924 0.19712038
0.071996756 -0.0071912818 0.19585705
0.076458387 -0.0092944354 0.19500001
0.04493143 -0.0046720924 0.19700001
0.046443697 -0.0046958085 0.19800001
0.069390208 -0.004200093 0.19886671
0.071691647 -0.0032300632 0.19822229
0.07216908 0.00044317194 0.19900003
0.033316344 0.0091078449 0.19520001
0.037097789 0.008353862 0.19565915
0.034043394 0.01105485 0.19700003
0.03718913 0.012742002 0.19668202
0.040048715 0.014978669 0.19500001
0.049213991 -0.015776221 0.20162499
0.052334223 -0.016824452 0.20061862
0.057726201 -0.017285587 0.203752
0.061278444 -0.016301049 0.20181821
0.048534386 -0.014322127 0.20016667
0.052248821 -0.014391827 0.20100002
0.05885407 -0.013470741 0.20387502
0.061049655 -0.012322008 0.20254394
0.047453307 -0.0084185274 0.20000002
0.062923498 -0.0075820144 0.20093258
0.065489933 -0.0054883263 0.20014289
0.055293538 -0.00020724464 0.20400001
0.063698918 -0.0029573289 0.20262691
0.067305483 -0.0024770065 0.20127469
0.071072236 -0.0011405268 0.20071998
0.056935139 0.00080742169 0.20378573
0.063971937 0.00039346609 0.2038182
0.067572795 0.00047368815 0.2024419
0.071244121 0.00058693573 0.20090479
0.034150146 0.013517046 0.20146881
0.035188477 0.013546105 0.20033334
0.056063183 -0.015276937 0.20500001
0.05416771 -0.011867689 0.20651279
0.057092153 -0.012126153 0.20625232
0.060665611 -0.010998386 0.205
0.054235723 -0.0078379661 0.20788002
0.058090761 -0.0082365014 0.20740232
0.061237603 -0.0071802652 0.2061834
0.054584585 -0.0047228592 0.20866667
0.058001865 -0.0017290134 0.20757134
0.061678194 -0.0026167596 0.20765722
0.058156371 0.00041562898 0.20556249
0.061645191 0.00028242735 0.20635298
0.057941329 -0.010598727 0.21000001
0.057115469 -0.0068642306 0.21007019
0.057368904 -0.0038161988 0.2100469
