# .PCD v0.7 - Point Cloud Data file format
VERSION 0.7
FIELDS x y z
SIZE 4 4 4
TYPE F F F
COUNT 1 1 1
WIDTH 241
HEIGHT 1
VIEWPOINT 0 0 0 1 0 0 0
POINTS 241
DATA ascii
-0.0046371203 0.028389746 0.11815792
-0.0052194679 0.030860353 0.1184
-0.0047632158 0.030409144 0.11800002
-0.0045473482 0.028093373 0.12
-0.00531387 0.033217847 0.1225
-0.0045424737 0.032290321 0.12278572
-0.0053104763 0.028138308 0.12718184
-0.0043248907 0.028182307 0.1273409
-0.0051483614 0.030975496 0.12600002
-0.0043229153 0.032389618 0.12679067
-0.0052217524 0.03679876 0.12833333
-0.0045823352 0.035566445 0.12840001
-0.011970603 0.027836304 0.13357556
-0.0091538476 0.027509239 0.13366663
-0.0042219949 0.02832159 0.13000003
-0.0040012603 0.033013724 0.13325001
-0.0054326365 0.03873495 0.13124999
-0.0046108421 0.037614774 0.13208333
-0.0054453691 0.040727966 0.13345456
-0.0049702465 0.040132102 0.133
-0.0069218474 0.024787411 0.13860002
-0.0047572087 0.024597937 0.13900001
-0.016995607 0.02729534 0.13788433
-0.013534803 0.028581358 0.13563024
-0.0073746587 0.027600197 0.13739195
-0.0043199495 0.029349495 0.13900001
-0.016669577 0.030670218 0.13873336
-0.01235751 0.032598171 0.13701208
-0.0083937356 0.032042313 0.13798547
-0.0039125164 0.032666735 0.13500001
-0.012111961 0.035895184 0.13862123
-0.0091920812 0.035940778 0.13876922
-0.0042639016 0.038905464 0.13617648
-0.0057106507 0.042429615 0.13634615
-0.0045748614 0.041040611 0.13792859
-0.00047394569 0.0198204 0.14400001
0.00035653298 0.01964424 0.14400001
-0.03224989 0.023163121 0.14322703
-0.027320297 0.023397084 0.14312565
-0.022539569 0.023707395 0.14255895
-0.019178556 0.024589436 0.14100002
-0.0057179076 0.023638973 0.14049998
-0.0035778219 0.02242768 0.14244673
0.00018396595 0.020586168 0.14400001
-0.031840257 0.025732044 0.14374004
-0.027043842 0.026746808 0.14335775
-0.021369476 0.026814137 0.14237042
-0.019304333 0.027486445 0.14071153
-0.0060154805 0.026160117 0.14046434
-0.0040841373 0.027260551 0.14212123
-0.027426753 0.030163638 0.14400001
-0.020345073 0.031643812 0.14304549
-0.017601881 0.032636493 0.14112864
-0.014920758 0.034317024 0.14000002
-0.0075596254 0.033588264 0.14037925
-0.0033987635 0.03295159 0.14224245
-0.016720194 0.037288595 0.14314812
-0.012494123 0.038277816 0.14105189
-0.008149948 0.037450403 0.14178224
-0.0036089076 0.038640216 0.1424737
-0.016690932 0.042666119 0.14400004
-0.012295638 0.041585419 0.14288464
-0.0084536979 0.041084971 0.14368187
-0.0038075331 0.041808743 0.14225003
-0.016996408 0.045774318 0.14400004
-0.0058808266 0.046796657 0.1439167
-0.035172179 0.0198278 0.148
-0.034408465 0.019665524 0.14890912
-0.0011614382 0.019729974 0.14500001
0.0029968303 0.019248404 0.14623941
0.0065117334 0.018826013 0.14757374
-0.035338499 0.020899177 0.14715385
-0.033558615 0.021498587 0.14735182
-0.029485198 0.024378201 0.14500001
-0.023157239 0.02277087 0.14500001
-0.0015204755 0.022726497 0.14521503
0.0023797392 0.022364121 0.14636917
0.006159469 0.021680448 0.14826514
-0.031993493 0.027985321 0.14560147
-0.027443377 0.028057292 0.14597979
-0.023350839 0.027926581 0.1456957
-0.0018226304 0.027391154 0.14700007
0.0016311064 0.027022496 0.14784804
-0.031871039 0.032115504 0.14793435
-0.027307279 0.03233251 0.14765072
-0.022616083 0.032188624 0.14769445
-0.0025992342 0.032099083 0.14727278
-0.030253939 0.035273205 0.149
-0.027611185 0.035708893 0.14860003
-0.020591555 0.036025595 0.14760001
-0.019070711 0.038287483 0.14611761
-0.0027404202 0.038627446 0.14693479
-0.01678543 0.042548478 0.14622651
-0.01200174 0.04324789 0.14620218
-0.0082135517 0.043313932 0.14607789
-0.002495063 0.042217877 0.14698552
-0.016169624 0.046941102 0.14710717
-0.0044744401 0.046254184 0.14757143
0.0035120742 0.014564678 0.15376194
0.0060389335 0.014573663 0.15180002
-0.032247715 0.018268753 0.15242462
0.0038553553 0.017029945 0.1534086
0.0071348036 0.016975991 0.15087822
-0.03245832 0.02137032 0.15172827
-0.025682464 0.021898348 0.15305002
-0.024711413 0.02201177 0.15317862
0.0042161965 0.024674561 0.14999999
0.0076748277 0.023258338 0.15047611
-0.00039258 0.02888139 0.15000001
0.0033992948 0.027984245 0.15038306
0.0067314459 0.027274534 0.15191092
-0.031668101 0.034519017 0.15000002
-0.027347561 0.033706386 0.15024246
-0.024196815 0.033749573 0.15064709
-0.0010287063 0.03270077 0.15115383
0.00245041 0.032452215 0.15203416
0.0057640253 0.030374378 0.15400003
-0.031987365 0.03743935 0.15141127
-0.02777781 0.037804272 0.15166654
-0.023325428 0.037538666 0.15200594
-0.0015204413 0.037722819 0.15185186
0.0025588262 0.036794189 0.15371184
-0.031867705 0.041261829 0.15347999
-0.027728446 0.041515891 0.1526622
-0.023321876 0.041961104 0.15287657
-0.019443508 0.043823887 0.1517143
-0.0071784179 0.044947196 0.15000001
-0.0010783004 0.042734765 0.15146033
0.0011887021 0.040601574 0.15400003
-0.030245477 0.013832266 0.1575
-0.027643045 0.014023856 0.15704933
-0.024874097 0.014117743 0.15663637
-0.001117599 0.013209045 0.15735936
0.0018223826 0.013506878 0.15617177
-0.030682547 0.01817463 0.15519305
-0.027907513 0.017049447 0.15714747
-0.024897708 0.016991813 0.15840001
-0.00094173197 0.017380431 0.15832882
0.0014020047 0.017553313 0.15674075
-0.030846385 0.021761684 0.15570971
-0.028419161 0.021802163 0.15736002
-0.024355734 0.02173922 0.15656099
-0.00079130748 0.020597985 0.15800002
0.0001693426 0.02019809 0.15733334
0.0086256387 0.028944559 0.15500002
0.0049346234 0.032792866 0.155
0.0072644935 0.032679908 0.1566734
-0.034072708 0.039944213 0.155
-0.027574088 0.039606519 0.15518181
-0.023670753 0.039862949 0.155
0.0024048355 0.037745815 0.15553673
0.0061798869 0.037157819 0.1575641
-0.031430487 0.0095409825 0.16366668
-0.030736899 0.011636525 0.16272733
-0.028873324 0.012285959 0.1625741
-0.024769872 0.014724518 0.16000001
-0.0014228044 0.011176391 0.16241939
6.0790167e-05 0.011908945 0.16050002
-0.02688437 0.018994026 0.16062503
-0.024687681 0.017036602 0.16136113
-0.001627241 0.019881209 0.16100001
-0.028266741 0.021597756 0.16041933
-0.024185656 0.02056131 0.16133332
-0.0012037077 0.02044069 0.16075002
-0.015852613 0.027845882 0.16177276
-0.013596899 0.028522696 0.16215585
-0.0099120168 0.029537931 0.164
-0.013181025 0.030661328 0.16235004
0.0083821649 0.034723122 0.16000001
0.0085370941 0.037727922 0.16114154
-0.0087965271 0.004920125 0.16900001
-0.030896062 0.0083949622 0.1665961
-0.027637834 0.0080903489 0.16823374
-0.022715099 0.0082949968 0.16780761
-0.01745932 0.0083655389 0.16696708
-0.012926934 0.0078310883 0.16802119
-0.008963313 0.0055664224 0.16899998
-0.0020496834 0.0082599884 0.1680658
-0.030327266 0.010320288 0.16580002
-0.027769061 0.011692326 0.16681251
-0.022904651 0.011811774 0.16873327
-0.016995391 0.011373614 0.16820619
-0.013632336 0.011149326 0.16879597
-0.0019800828 0.010598865 0.16635714
-0.025235783 0.017737489 0.16833335
-0.02417551 0.015671115 0.16712502
-0.02535362 0.023433194 0.16775002
-0.024063939 0.023285495 0.16695553
-0.025327165 0.025175078 0.16700001
-0.023808433 0.02556756 0.16695237
-0.015768677 0.026873359 0.16777779
-0.012039638 0.02770325 0.16753441
-0.0093314769 0.028081093 0.16782609
-0.011305234 0.030317407 0.16518183
-0.006623901 0.0046069799 0.17000002
-0.0042560222 0.0047651697 0.17036362
-0.026139732 0.0099405004 0.17
-0.010717841 0.0083355466 0.17008576
-0.0074647325 0.0077041797 0.17093416
-0.0040149605 0.0073352642 0.17141096
-0.026427586 0.012332016 0.17077649
-0.022032237 0.013163274 0.17056857
-0.017846974 0.01360342 0.17043212
-0.012174771 0.012973115 0.17113379
-0.0069977231 0.011397609 0.17321651
-0.003970461 0.01137915 0.17352937
-0.025246305 0.019058276 0.17120002
-0.022468992 0.017508445 0.17278825
-0.017404055 0.017337238 0.17246599
-0.012511073 0.017410984 0.1728096
-0.0097865947 0.017168453 0.17400001
-0.025277417 0.021110823 0.171
-0.022878129 0.022767035 0.17248279
-0.016995773 0.023156306 0.1736628
-0.012690454 0.022667645 0.17312026
-0.0070324088 0.023795379 0.17346148
-0.0041202344 0.023426529 0.1735
-0.02165588 0.026701881 0.17247908
-0.017929835 0.026564291 0.1721554
-0.012278462 0.025679134 0.17055
-0.0086882971 0.026292665 0.1715333
-0.019280702 0.030648787 0.17340003
-0.010347469 0.0128019 0.17500001
-0.0079351459 0.013526241 0.17525588
-0.0040763789 0.013945287 0.17670372
-0.020914137 0.019560901 0.175
-0.019568456 0.019591484 0.17500001
-0.01241187 0.019591484 0.17500001
-0.0074730143 0.017447546 0.17687082
-0.0040175309 0.017584391 0.17837881
-0.021348424 0.021876087 0.17500013
-0.017984938 0.02206015 0.17502005
-0.011469875 0.022485349 0.17514817
-0.0077028163 0.022061845 0.17639999
-0.003889831 0.021834763 0.17749211
-0.020770572 0.028997047 0.17513335
-0.019680277 0.029853733 0.17600001
-0.0087543139 0.025223896 0.17525001
-0.020578308 0.03041335 0.17544444
-0.019624891 0.030321002 0.17550001
-0.0031404917 0.018830024 0.18000001
