# .PCD v0.7 - Point Cloud Data file format
VERSION 0.7
FIELDS x y z
SIZE 4 4 4
TYPE F F F
COUNT 1 1 1
WIDTH 89
HEIGHT 1
VIEWPOINT 0 0 0 1 0 0 0
POINTS 89
DATA ascii
-0.0014966893 -0.068731375 0.289
0.0027492801 -0.06805408 0.28883326
0.0069434727 -0.068307593 0.28883868
-0.015693247 -0.071566269 0.29399997
-0.012702186 -0.071404502 0.29302445
-0.0078986464 -0.070546053 0.29049999
-0.0041552549 -0.070357457 0.29000002
0.013281982 -0.070495494 0.29081249
0.017636182 -0.071377158 0.29299992
-0.011408635 -0.068642229 0.29345456
-0.0073797936 -0.067582369 0.29134738
-0.0027627395 -0.066831939 0.29039222
0.0021928954 -0.065813795 0.29010713
0.0081011429 -0.066565029 0.28999999
0.012710407 -0.067544594 0.29097313
0.016645039 -0.067708537 0.29314709
-0.0068087983 -0.063394539 0.29338464
-0.0026163089 -0.062407516 0.29245949
0.0022796427 -0.062413413 0.29121226
0.007503238 -0.062341373 0.29128572
0.012293732 -0.062722079 0.2926001
0.015589895 -0.06380792 0.29371426
-0.0014237015 -0.059151538 0.29390004
0.0027049796 -0.058785215 0.29327029
0.0071627176 -0.059066184 0.29341668
0.01070834 -0.059696276 0.294
-0.016564941 -0.072724134 0.29500005
-0.014989273 -0.074201323 0.29500002
0.019638147 -0.071181901 0.29512504
0.021612603 -0.072481826 0.29608822
-0.015595487 -0.067923106 0.29655001
-0.012979672 -0.066876128 0.29610199
0.018759266 -0.067268632 0.29587501
0.02063165 -0.068007194 0.29719996
-0.011767657 -0.06305214 0.29786044
-0.0081934836 -0.061419915 0.29554546
-0.0047052251 -0.060090654 0.29500002
0.013602702 -0.060620047 0.29525006
0.017330853 -0.062185023 0.29701671
-0.010344381 -0.059451006 0.29900002
-0.0072224205 -0.057382781 0.29764178
-0.0026829578 -0.057092972 0.29676363
0.0024568241 -0.056434702 0.29597297
0.0075862221 -0.056533817 0.29560462
0.012586195 -0.057435926 0.2966865
0.016425524 -0.058454521 0.29825002
-0.006065343 -0.054135736 0.29894117
-0.0022371009 -0.053555667 0.29894435
0.0024386346 -0.053433865 0.29850939
0.0073178806 -0.053466573 0.29803702
0.011372424 -0.054134123 0.2985
-0.016216198 -0.065730274 0.30000001
0.021663738 -0.065302692 0.30366668
-0.016046176 -0.062160634 0.30136371
-0.013587621 -0.061616108 0.30019242
0.019517083 -0.061020575 0.30128571
0.021602234 -0.063117638 0.30363637
-0.01583839 -0.058163602 0.30311111
-0.012651442 -0.057540298 0.30240011
-0.0097303977 -0.056082647 0.30000001
0.014753498 -0.055596214 0.30000001
0.017930146 -0.057191197 0.30175558
0.020536648 -0.059705786 0.30400002
-0.011063251 -0.053807914 0.30375001
-0.0074573266 -0.05202331 0.30118185
-0.0024241642 -0.051004712 0.30014294
0.0023595393 -0.050802812 0.30000001
0.0076204939 -0.05092369 0.30004552
0.012551215 -0.052119881 0.30099994
0.016331445 -0.052830189 0.30306825
-0.0063693882 -0.047916815 0.30317646
-0.0022313115 -0.047558594 0.30185518
0.0026614885 -0.047518592 0.3013142
0.0074287471 -0.047536399 0.30134332
0.012063497 -0.04792558 0.30294549
0.015426559 -0.049217373 0.30366668
0.022087833 -0.060792364 0.30500004
-0.015582781 -0.055608995 0.30528575
-0.012777401 -0.055204034 0.30500001
0.019443026 -0.055672389 0.30540001
0.021607172 -0.056453291 0.30785719
-0.015709031 -0.052727584 0.30805561
-0.012589094 -0.052166313 0.30637258
-0.0090683345 -0.050258614 0.30500001
0.018628765 -0.051899992 0.30575764
0.02153147 -0.05431208 0.30883336
-0.015533619 -0.049581673 0.30900002
-0.01625409 -0.05007723 0.31
0.021947276 -0.05409842 0.31
