# .PCD v0.7 - Point Cloud Data file format
VERSION 0.7
FIELDS x y z
SIZE 4 4 4
TYPE F F F
COUNT 1 1 1
WIDTH 144
HEIGHT 1
VIEWPOINT 0 0 0 1 0 0 0
POINTS 144
DATA ascii
-0.061881147 -0.02068983 0.21400002
-0.07691364 -0.017968824 0.21361913
-0.072416678 -0.017339414 0.21305393
-0.067359217 -0.017351003 0.2132307
-0.06348756 -0.018671131 0.21378
-0.075066783 -0.014790996 0.21400002
-0.071748681 -0.014205446 0.21400009
-0.068573102 -0.014245722 0.21400008
-0.082716092 -0.020352488 0.21806669
-0.060691986 -0.020596575 0.21519999
-0.057092339 -0.021595698 0.21762685
-0.082103223 -0.017383315 0.21701379
-0.078740105 -0.016883576 0.21594287
-0.065656438 -0.015557335 0.215
-0.061887939 -0.01730141 0.21563995
-0.058286048 -0.017673919 0.21722846
-0.081645362 -0.014052786 0.21834482
-0.077460133 -0.012574052 0.21737006
-0.072669588 -0.011879276 0.21589769
-0.067419313 -0.012139675 0.2160427
-0.062954709 -0.012892669 0.21755238
-0.059273761 -0.014046382 0.21862501
-0.076135516 -0.009216588 0.21862501
-0.072342262 -0.0081949392 0.21855554
-0.067650795 -0.0082321083 0.21854438
-0.064160347 -0.0095104706 0.2189167
-0.053040549 -0.025584744 0.2234091
-0.086579941 -0.022197206 0.22281253
-0.0553599 -0.022217376 0.22013791
-0.053443559 -0.022581786 0.22268872
-0.05605438 -0.017277023 0.22148778
-0.054090612 -0.017726423 0.2235909
-0.085093886 -0.01035088 0.223
-0.08286462 -0.011781783 0.22116365
-0.061114702 -0.010871188 0.22005264
-0.057600968 -0.012547749 0.22188529
-0.054893624 -0.014101987 0.22400001
-0.085213415 -0.009145624 0.22385713
-0.08196836 -0.0080312397 0.22310388
-0.077472419 -0.0072886497 0.22098356
-0.07289917 -0.0058806371 0.22008818
-0.066891015 -0.006113396 0.2205745
-0.062383175 -0.0074793282 0.22170462
-0.059054848 -0.0086879255 0.22277276
-0.076206625 -0.002586609 0.22319992
-0.072529323 -0.0025810141 0.22269818
-0.067458913 -0.0027696448 0.22259535
-0.063155383 -0.0036758813 0.22373761
-0.075790003 0.00025671028 0.22400001
-0.073470592 0.00061354303 0.22400001
-0.068404846 0.00028092394 0.22400001
-0.052154571 -0.026691854 0.22559372
-0.051598623 -0.021905612 0.22589743
-0.052651737 -0.017128939 0.22647302
-0.05583458 -0.011131457 0.22530766
-0.053882729 -0.012548446 0.22710848
-0.083371773 -0.0061562592 0.22531818
-0.057039071 -0.007127637 0.22655007
-0.054502804 -0.0092331842 0.22838461
-0.081150286 -0.0026505408 0.22579689
-0.079070009 -0.0025056337 0.22565386
-0.066399656 -0.00047179611 0.22500001
-0.061936412 -0.0016868492 0.22575961
-0.058184508 -0.0029707726 0.22781488
-0.081606887 0.0015395298 0.22829273
-0.077466018 0.00276155 0.22685404
-0.072151475 0.0027244361 0.2256939
-0.067439944 0.0026350655 0.22616208
-0.059658773 0.00044809643 0.22900002
-0.052776393 -0.030614857 0.23360001
-0.051970832 -0.028461261 0.23244445
-0.090303123 -0.024014663 0.23400001
-0.089291342 -0.023382297 0.23400001
-0.052608863 -0.011991076 0.23107693
-0.055195052 -0.0058506746 0.23092312
-0.053911198 -0.00754662 0.23217236
-0.055882428 -0.0018140849 0.23150873
-0.054527737 -0.0031884897 0.23366669
-0.090516903 -0.03181449 0.23753123
-0.089010417 -0.031838041 0.23839998
-0.052841447 -0.032320697 0.23538896
-0.090595439 -0.027352102 0.23609094
-0.089272082 -0.02786351 0.23800001
-0.052330926 -0.029959913 0.23500001
-0.090180986 -0.024371319 0.23500001
-0.089060344 -0.02415411 0.23560004
-0.052903853 -0.016943095 0.2375
-0.052640632 -0.01102151 0.23712501
-0.05275235 -0.0073811226 0.23700005
-0.049733929 -0.0089621479 0.23900001
-0.090008602 -0.035023309 0.24100001
-0.086794034 -0.036325157 0.24252541
-0.084749438 -0.037091278 0.24399999
-0.057500161 -0.037338551 0.24400002
-0.090218842 -0.034488838 0.24000001
-0.087510884 -0.032686211 0.2424757
-0.090016432 -0.025591236 0.2405
-0.088349499 -0.027632331 0.24262188
-0.090008602 -0.024472537 0.24100001
-0.088683657 -0.024230644 0.24337037
-0.052536339 -0.017236613 0.24000001
-0.051498618 -0.010828642 0.24000001
-0.051352158 -0.0072088507 0.24098141
-0.049805012 -0.0077579729 0.24075001
-0.080418997 -0.040795401 0.24757144
-0.077399202 -0.041203216 0.24890694
-0.072691202 -0.041306537 0.24899995
-0.067350224 -0.040997311 0.24857582
-0.063828163 -0.04085451 0.2472
-0.085146435 -0.035207354 0.245
-0.082236551 -0.03743881 0.24672538
-0.077716224 -0.038363449 0.2489832
-0.073515929 -0.03961771 0.24900004
-0.067022845 -0.03887561 0.24892308
-0.062251538 -0.037598826 0.24722217
-0.05893651 -0.037733305 0.24535477
-0.085579142 -0.031901289 0.24591173
-0.083290942 -0.0326095 0.24772403
-0.061467312 -0.033572383 0.2487084
-0.05928918 -0.03422223 0.24650002
-0.086610064 -0.027446523 0.24709994
-0.084251896 -0.028300073 0.24841672
-0.08691898 -0.024585934 0.2474706
-0.084649749 -0.024227211 0.24850002
-0.072696432 -0.040384859 0.25
-0.069048166 -0.04200631 0.25
-0.080398321 -0.035520509 0.25
-0.076771863 -0.036335886 0.25017077
-0.072383977 -0.037593696 0.25032249
-0.067812316 -0.036707621 0.25041306
-0.064832397 -0.035844799 0.25
-0.08118514 -0.031947691 0.25112069
-0.0776188 -0.032593716 0.25235656
-0.07263229 -0.033221636 0.25318953
-0.067575932 -0.032755241 0.25278744
-0.063958511 -0.033457942 0.250375
-0.082208738 -0.027268523 0.25231376
-0.078736722 -0.028018102 0.25387508
-0.070152938 -0.028675569 0.25400001
-0.085668027 -0.024575725 0.25
-0.084065326 -0.024788653 0.25033334
-0.072383717 -0.030705469 0.25500008
-0.076964021 -0.027975528 0.25513166
-0.073097162 -0.028774954 0.25536957
