# .PCD v0.7 - Point Cloud Data file format
VERSION 0.7
FIELDS x y z
SIZE 4 4 4
TYPE F F F
COUNT 1 1 1
WIDTH 174
HEIGHT 1
VIEWPOINT 0 0 0 1 0 0 0
POINTS 174
DATA ascii
-0.0016497368 -0.0033321483 0.18400002
0.0025897881 -0.0027624078 0.18375371
0.0060454551 -0.0036903701 0.18400002
0.0025846316 0.00019666218 0.18400003
-0.012079215 -0.005851693 0.18825004
-0.0085664559 -0.0054369844 0.18666667
0.0085123386 -0.0052874023 0.18500002
0.013257108 -0.0055778027 0.18636581
0.016723456 -0.0065295412 0.18813433
-0.011316307 -0.0036465921 0.18836589
-0.0074231131 -0.0026056874 0.18648948
-0.0033465733 -0.0018802306 0.18530016
0.0025378715 -0.0008028138 0.18540907
0.0079471292 -0.0023249933 0.18556063
0.012394806 -0.002635143 0.18668996
0.015805757 -0.0033350985 0.18857154
-0.0064450596 0.0016161714 0.18853711
-0.0024395012 0.0022650631 0.1874733
0.0025411935 0.0024931177 0.1875091
0.0073227235 0.0021505821 0.18797377
0.011552238 0.0012994105 0.18851434
-0.00087699975 0.0059246165 0.18858826
0.0028355571 0.0056567104 0.18890634
0.0054567321 0.0052803876 0.18900003
-0.018841987 -0.010769321 0.19366668
0.020235686 -0.010210144 0.193
-0.016810294 -0.0081236316 0.19364208
-0.013263486 -0.0078168055 0.19145098
0.019088749 -0.0071612569 0.19059181
0.020511258 -0.0079837181 0.19293334
-0.015506393 -0.0041248789 0.19383335
-0.012861975 -0.0020080474 0.19132432
0.014889243 -0.00060378923 0.19000003
0.017889244 -0.0024311452 0.19168001
0.020025972 -0.0042077419 0.19400001
-0.011877435 0.0017716968 0.19313104
-0.0081890868 0.002872952 0.19105934
-0.0031845223 0.004736186 0.19000003
0.0089252172 0.0044281106 0.19000004
0.013109132 0.0031679592 0.19078998
0.016527655 0.0018696208 0.19272417
-0.010171914 0.005150456 0.19400001
-0.0070953509 0.0070386361 0.19290832
-0.0027232431 0.0077665742 0.19144203
0.0024105108 0.0079577444 0.19127424
0.0076205409 0.0075689778 0.19136871
0.012306342 0.0069876909 0.19296788
0.015433379 0.0054650172 0.19400001
-0.005432006 0.010771569 0.19325002
-0.0022269636 0.011566649 0.19323868
0.0028132345 0.011821429 0.19336057
0.0071597705 0.011549335 0.19361545
-0.018287007 -0.010632131 0.19500001
0.019705728 -0.010660204 0.19550002
0.022067655 -0.011832264 0.19706817
-0.016999694 -0.0065669254 0.19500001
0.021744812 -0.0064785304 0.19666669
-0.01657458 -0.0022940033 0.19659182
-0.01496709 -0.00083046703 0.19500002
0.019552922 -0.00093858753 0.19555557
0.02146012 -0.0024797188 0.19818926
-0.016074244 0.0013039872 0.19819355
-0.013186486 0.0037674587 0.19553339
0.018678013 0.0030782267 0.19610807
0.020860251 0.0017441522 0.19824998
-0.012178315 0.0074017853 0.19719256
-0.008560108 0.0090762768 0.19558623
0.01342715 0.0093081165 0.19525649
0.017233433 0.0075115198 0.19697398
0.020219438 0.0052831997 0.19900002
-0.012162659 0.01060723 0.19900005
-0.00756669 0.012589617 0.19739045
-0.0027261393 0.013937338 0.19523077
0.0021563629 0.013525276 0.19593617
0.0078606391 0.013646116 0.19532202
0.012375532 0.012552606 0.1966258
0.016132269 0.011472912 0.19855812
-0.0066909092 0.015898684 0.19829266
-0.0024821786 0.017333267 0.19744284
0.002395537 0.017247064 0.19746846
0.0074144443 0.01708308 0.19731775
0.01172366 0.016420409 0.19820008
0.022621432 -0.016451426 0.2030286
-0.0214264 -0.013128375 0.20380001
-0.019296411 -0.012280561 0.20400001
0.022426426 -0.014010383 0.20161112
-0.016863488 0.0034335894 0.20068964
0.021939524 0.003307126 0.2009487
-0.01636168 0.0067297006 0.20264515
-0.013604019 0.0093331393 0.20050001
0.019476434 0.0086904364 0.20078948
0.021519026 0.0074525136 0.20240003
-0.011818532 0.012851413 0.20082717
-0.0098379282 0.014389868 0.20000002
0.014483823 0.014714157 0.2
0.017895533 0.013111908 0.20150524
0.02092593 0.010576046 0.20400003
0.021828536 -0.020291144 0.20900001
-0.020792756 -0.016243475 0.20677273
-0.018576138 -0.017028395 0.20783556
0.021592859 -0.018583333 0.20828004
-0.020962674 -0.014093247 0.20504761
-0.018885294 -0.013740135 0.20647058
-0.016989825 0.0088719176 0.20550004
-0.016423758 0.012557303 0.20721054
-0.01659485 -0.021266218 0.21241175
0.018373715 -0.022366427 0.21312125
0.020730697 -0.02130569 0.21117648
-0.016808519 -0.017708039 0.2118334
0.018826127 -0.018300962 0.2129184
0.020389771 -0.017275359 0.21045455
-0.017337095 -0.013180856 0.21204086
0.019615635 -0.014582941 0.21350002
0.020410702 -0.014583645 0.21100001
-0.010586751 -0.025537364 0.21728572
-0.0072803367 -0.026010288 0.21852174
-0.0043807756 -0.027564993 0.21900001
0.0087451544 -0.026778711 0.219
0.012300381 -0.025953775 0.21810524
0.015611717 -0.025593098 0.21666667
-0.015304516 -0.021253306 0.21554546
-0.012285623 -0.022380961 0.21690147
-0.0087725129 -0.023335293 0.21865572
0.013186647 -0.023557272 0.21812902
0.01593305 -0.022534363 0.21608001
-0.015520399 -0.017560439 0.21560611
-0.013262643 -0.018031407 0.21767388
-0.0097072395 -0.019752847 0.21900001
0.017151324 -0.017506436 0.21687758
-0.015675779 -0.013044679 0.21583788
-0.014572275 -0.013197114 0.21851721
0.018453628 -0.014028826 0.21733335
-0.0051855617 -0.025764579 0.22000001
-0.0021984733 -0.026465436 0.22004354
0.0025994934 -0.026683325 0.22015193
0.0067679225 -0.02619604 0.21999995
-0.0065951124 -0.021950793 0.22062789
-0.0023771548 -0.022472732 0.22186458
0.002612506 -0.022581605 0.22253095
0.0075973403 -0.022521215 0.22151183
0.01179225 -0.021536499 0.22062905
-0.011444136 -0.016662074 0.22040004
-0.0078706155 -0.017815121 0.22281986
-0.0029963474 -0.019013893 0.22386487
0.0038729175 -0.01984062 0.22400001
0.0081106108 -0.018513894 0.22359611
0.012613698 -0.017593428 0.22189927
0.015777308 -0.016656423 0.22033334
-0.015102349 -0.010925068 0.22000001
-0.012154294 -0.012473223 0.22151731
-0.0097032078 -0.014448553 0.22300002
0.014037693 -0.013795382 0.22329631
0.016278107 -0.013168835 0.22155319
-0.011906402 -0.0090198889 0.22263634
-0.00988454 -0.0081813801 0.223
-0.002554432 -0.0074050073 0.2232414
0.0069096442 -0.0083575761 0.2226191
0.00060677086 -0.02029402 0.22500001
-0.0063132551 -0.015836714 0.22511995
-0.0022955514 -0.016797075 0.22560716
0.0024188033 -0.017375592 0.22613019
0.0068326825 -0.016511351 0.22563936
0.010509198 -0.015394924 0.22500002
-0.010338018 -0.010808539 0.22500001
-0.0077278023 -0.012365169 0.2262478
-0.0025581028 -0.012450713 0.22713061
0.0025337855 -0.012385022 0.22794245
0.0075296704 -0.012461996 0.22673538
0.011997759 -0.012170475 0.2256076
-0.0077347895 -0.0085661719 0.22669366
-0.0022843038 -0.0087948116 0.22606392
0.002170813 -0.0085531138 0.22737934
0.0078500537 -0.0094659245 0.22583337
0.010859855 -0.0092601236 0.22577782
