# .PCD v0.7 - Point Cloud Data file format
VERSION 0.7
FIELDS x y z
SIZE 4 4 4
TYPE F F F
COUNT 1 1 1
WIDTH 106
HEIGHT 1
VIEWPOINT 0 0 0 1 0 0 0
POINTS 106
DATA ascii
-0.042967156 0.0335791 0.11900005
-0.043093413 0.03518942 0.119
-0.038168557 0.029429816 0.12400001
-0.041045308 0.0333094 0.12161167
-0.039500069 0.032715391 0.12388895
-0.045411605 0.03881992 0.12200002
-0.042372189 0.037386365 0.12200274
-0.039816488 0.035516843 0.1235
-0.045778979 0.041848779 0.12356145
-0.043471962 0.041455217 0.12355451
-0.038484946 0.029541111 0.12705
-0.040199161 0.030680558 0.125
-0.038679186 0.032577701 0.12670258
-0.040526897 0.03873108 0.12582855
-0.038974106 0.037083462 0.12733823
-0.045756735 0.044036012 0.125025
-0.041581612 0.04273684 0.12645164
-0.039477166 0.041190818 0.12868087
-0.046439715 0.047355924 0.1274959
-0.042826194 0.04700831 0.12790956
-0.043577202 0.050069034 0.12900001
-0.038343653 0.028682487 0.13218951
-0.03773997 0.032458302 0.13147707
-0.031511467 0.034357257 0.13212499
-0.037818898 0.037542932 0.13198707
-0.031725369 0.036308803 0.13318752
-0.040120818 0.04417567 0.13000001
-0.038576454 0.04239272 0.13171636
-0.049132027 0.049276754 0.13000004
-0.040857892 0.048000406 0.13109215
-0.039014768 0.046850074 0.13289063
-0.047104567 0.050290745 0.13000007
-0.04157107 0.05066229 0.13189533
-0.03961711 0.050141137 0.134
-0.040359456 0.026486041 0.13777779
-0.038480751 0.027494626 0.13771646
-0.037400126 0.032361709 0.13689235
-0.037223663 0.037252329 0.13667805
-0.032422721 0.037463285 0.13711943
-0.037551716 0.042830583 0.13673048
-0.032192789 0.041103609 0.13900001
-0.037948146 0.04784885 0.13696595
-0.040186379 0.051686417 0.13500001
-0.038435861 0.051607579 0.1367344
-0.041074578 0.023968447 0.14207503
-0.039693665 0.024776127 0.14100002
-0.041752063 0.025516808 0.142
-0.039242264 0.025511097 0.14060001
-0.037456829 0.033249423 0.14066669
-0.037378933 0.037881397 0.14207357
-0.037061911 0.042910516 0.14152946
-0.032446261 0.041662432 0.14022732
-0.036857445 0.047590449 0.14197199
-0.036989383 0.05241533 0.14215052
-0.046398737 0.01921076 0.14856756
-0.044956081 0.019767536 0.148
-0.045959696 0.020939229 0.14851514
-0.043050248 0.021881104 0.1459524
-0.037106212 0.042754378 0.14625862
-0.036611881 0.047237054 0.14733334
-0.034871209 0.046718258 0.149
-0.06555111 0.01801439 0.15348485
-0.063021183 0.017646458 0.15362902
-0.057068028 0.017404029 0.15399997
-0.052622862 0.018145952 0.15295076
-0.04864978 0.018411286 0.1507308
-0.065606266 0.020535631 0.15400003
-0.063924924 0.020277601 0.15400003
-0.055518243 0.020069517 0.15400001
-0.051891945 0.021150295 0.15322948
-0.048527755 0.022492571 0.15213951
-0.048120916 0.025355546 0.15350002
-0.055185311 0.034718774 0.15400001
-0.054780122 0.034816738 0.15333335
-0.065263309 0.035418045 0.1534286
-0.063559569 0.036519807 0.1527738
-0.053943194 0.035359036 0.15400003
-0.061432015 0.01905757 0.15523733
-0.058294311 0.018789856 0.15514639
-0.066234827 0.023110941 0.15579173
-0.062608331 0.02264053 0.15701976
-0.057662696 0.022654224 0.15735768
-0.053631362 0.023427466 0.15660276
-0.049721293 0.024723683 0.155
-0.066734038 0.027555825 0.15768801
-0.063630797 0.026726445 0.158353
-0.05730512 0.026129425 0.15883337
-0.052218556 0.027152358 0.15762153
-0.049647208 0.026834181 0.15641668
-0.067424662 0.032258935 0.15861174
-0.06190373 0.033764523 0.15775003
-0.057390492 0.033332072 0.15712336
-0.053479753 0.033238053 0.15700005
-0.049981005 0.030388618 0.15700001
-0.066204898 0.035224944 0.1565263
-0.062815018 0.035474468 0.15593748
-0.058109481 0.035152443 0.15611108
-0.053598881 0.035117764 0.155
-0.062238071 0.028184166 0.16053323
-0.057830967 0.028409844 0.16087158
-0.054244593 0.029200276 0.16035716
-0.066793859 0.032497115 0.16076386
-0.0626828 0.031529799 0.1608742
-0.057621885 0.031226952 0.16104588
-0.054013018 0.031461935 0.16063263
-0.068343565 0.035448335 0.163
