# .PCD v0.7 - Point Cloud Data file format
VERSION 0.7
FIELDS x y z
SIZE 4 4 4
TYPE F F F
COUNT 1 1 1
WIDTH 117
HEIGHT 1
VIEWPOINT 0 0 0 1 0 0 0
POINTS 117
DATA ascii
0.063352086 0.028653827 0.12339067
0.063715592 0.031554274 0.1238099
0.065180562 0.031781346 0.12400001
0.058996461 0.024416527 0.12866668
0.059273597 0.027479423 0.12833804
0.061095558 0.02798773 0.12637497
0.059681609 0.030198168 0.12900001
0.062297288 0.03266358 0.12669918
0.065535575 0.034225848 0.12505881
0.064062491 0.036619138 0.12814727
0.066115424 0.037475292 0.12727694
0.067214787 0.040570948 0.12899998
0.057090648 0.024049107 0.13299069
0.057479829 0.026999339 0.13162661
0.061915264 0.026393866 0.13028572
0.058772862 0.0321653 0.13203788
0.060658839 0.032990191 0.13067363
0.059076734 0.036115486 0.13399991
0.061984893 0.037789743 0.13206209
0.065332003 0.03932051 0.13000003
0.063572757 0.041942023 0.1321559
0.066861585 0.042854559 0.13116218
0.06464754 0.045305427 0.13390003
0.067936964 0.046384968 0.13318552
0.070197903 0.047694121 0.13347059
0.058507431 0.017784415 0.13867858
0.054761071 0.023120025 0.13803847
0.055914849 0.022721596 0.13679285
0.054746702 0.026024783 0.13844447
0.055946499 0.027905803 0.13692212
0.056956671 0.032497671 0.13694103
0.058064677 0.037659325 0.1371855
0.061173212 0.039010808 0.1351579
0.059285134 0.041659214 0.13791919
0.061800465 0.042714518 0.136245
0.06516692 0.044179752 0.13875
0.059883967 0.045109909 0.13850001
0.062977739 0.046967309 0.13769574
0.066913895 0.04848573 0.13574688
0.070684329 0.049661633 0.13500001
0.057758674 0.018941619 0.14165218
0.060866568 0.019295618 0.14227273
0.054858267 0.02348672 0.14
0.056251947 0.020576429 0.14074196
0.060696475 0.020440141 0.14276923
0.054844208 0.026889196 0.1415
0.055203777 0.027958656 0.14305718
0.055869054 0.032995444 0.14107144
0.056441065 0.03771745 0.14137895
0.057892028 0.042914294 0.14148018
0.058641415 0.046990942 0.14276971
0.062017832 0.048409011 0.14143796
0.0652394 0.046624336 0.14108825
0.05967338 0.01466652 0.14900002
0.060076043 0.014827585 0.149
0.058546979 0.017232222 0.14656124
0.060315728 0.0159104 0.14788888
0.061121482 0.020923864 0.14511111
0.054936614 0.029382542 0.14500001
0.055289276 0.029770471 0.14500001
0.054865897 0.030801781 0.14533335
0.055761252 0.032861412 0.14577189
0.055869494 0.037706766 0.14675002
0.054687165 0.040747173 0.14750001
0.056163907 0.042282712 0.14716811
0.059992805 0.014197445 0.15000001
0.062860228 0.013180792 0.15233678
0.065778434 0.011559893 0.15399995
0.062407088 0.015927756 0.15268186
0.064108893 0.023720879 0.15282354
0.066144623 0.023873806 0.15323254
0.064727023 0.026255742 0.15175
0.066334181 0.026412053 0.15185
0.079335764 0.027500231 0.15376925
0.080209956 0.027392363 0.15385717
0.056230497 0.034613729 0.15100001
0.055854905 0.037485845 0.15060003
0.055429753 0.043256655 0.15090626
0.069043219 0.0097500607 0.15576924
0.072753288 0.0092228046 0.15701635
0.077557422 0.0089729102 0.15687363
0.08111053 0.0092426874 0.15600005
0.064631477 0.014670693 0.155
0.067888282 0.012892279 0.15612704
0.072375529 0.012201061 0.1579463
0.077503584 0.011873454 0.15807371
0.081506759 0.012795318 0.15762816
0.06436374 0.016911576 0.15539397
0.067120112 0.016960993 0.15751757
0.070209518 0.015350072 0.15900002
0.08276955 0.016239632 0.15887034
0.068412803 0.023211854 0.15811113
0.070037641 0.024330471 0.15900001
0.083443791 0.024846092 0.15900001
0.069048554 0.0265272 0.15800002
0.072271556 0.028006837 0.15896872
0.079324722 0.027129712 0.15655556
0.081633538 0.026804332 0.15723233
0.073726222 0.014635452 0.16000004
0.077473678 0.014438468 0.15999994
0.080163591 0.014798033 0.16000001
0.069440208 0.018736415 0.16045459
0.072658435 0.017450467 0.16095942
0.077532567 0.017559478 0.16172758
0.081928849 0.018106109 0.16106327
0.069460869 0.021627732 0.16078132
0.072740607 0.022597527 0.16310631
0.077781036 0.022551222 0.16369161
0.082514919 0.022677464 0.16304384
0.085416764 0.022714673 0.16282356
0.069959261 0.025521223 0.16000001
0.072972432 0.026727442 0.1610073
0.07748203 0.026346933 0.16123238
0.081679262 0.025475752 0.16100001
0.071962833 0.030118637 0.16100001
0.074687123 0.023012741 0.16500001
0.077015445 0.022717832 0.16499998
