# .PCD v0.7 - Point Cloud Data file format
VERSION 0.7
FIELDS x y z
SIZE 4 4 4
TYPE F F F
COUNT 1 1 1
WIDTH 186
HEIGHT 1
VIEWPOINT 0 0 0 1 0 0 0
POINTS 186
DATA ascii
0.026795659 -0.0076523665 0.17131999
0.034168378 -0.00030215961 0.17400001
0.035478689 -0.00017642886 0.17366669
0.034070507 0.0014609761 0.17399991
0.037473783 0.0025776809 0.1730241
0.042305946 0.0029700252 0.17132539
0.047371116 0.0032985141 0.17104413
0.052497037 0.0031791523 0.17151384
0.056595411 0.0023750539 0.17291841
0.038380768 0.0053953449 0.17400001
0.043085974 0.0066007641 0.17312762
0.046946641 0.0068307323 0.17295654
0.052423704 0.0064709885 0.17327183
0.055458333 0.0060511711 0.17391668
0.027083591 -0.010351698 0.1772
0.026926821 -0.0093769729 0.17627273
0.028409779 -0.0011786997 0.17848887
0.031308696 -0.00066567771 0.17664108
0.059313428 -0.00034152195 0.1754286
0.061883356 -0.0015611908 0.17693616
0.029406445 0.0015020581 0.17831816
0.032095134 0.0028408542 0.17664517
0.036207173 0.0046637654 0.17499998
0.040197462 0.0049297838 0.17500001
0.05904552 0.0030857676 0.17592163
0.061019532 0.0019770598 0.17677775
0.033414695 0.0069381283 0.1779011
0.037525821 0.0076619415 0.1762135
0.041925859 0.0081916694 0.17541181
0.048373915 0.0084978407 0.17503087
0.052511547 0.0088468213 0.17517151
0.057651665 0.0076180054 0.17720494
0.060602665 0.005473129 0.17883335
0.034620114 0.010673211 0.17885716
0.037854958 0.01148262 0.17794059
0.042544775 0.012327227 0.17706288
0.047408838 0.012348878 0.17624061
0.052340053 0.012484106 0.1773638
0.056016445 0.011917112 0.1785965
0.044181995 0.016442847 0.17825712
0.047568277 0.015754653 0.17851347
0.052410364 0.015680373 0.17899996
0.027415227 -0.0061442987 0.18372729
0.065635264 -0.0052588223 0.18400002
0.026849911 -0.0025288719 0.18177469
0.064283974 -0.0024739015 0.18108001
0.065761261 -0.003415331 0.18250003
0.027944926 0.0026621104 0.18141177
0.0628144 0.0029477826 0.18116669
0.028755011 0.006628925 0.18288888
0.031458009 0.0079821795 0.18076003
0.059460528 0.0094747953 0.1805
0.061379634 0.0076343762 0.18161541
0.03282113 0.012342504 0.18226086
0.03712805 0.013692495 0.18059523
0.042304937 0.014451879 0.18000004
0.058440991 0.012884692 0.18126972
0.060930151 0.01241285 0.18330559
0.033341486 0.015557649 0.18400002
0.037609193 0.01733505 0.18282776
0.042120758 0.017776418 0.18136758
0.047607575 0.018131861 0.18058625
0.052477129 0.017958375 0.18120635
0.056987002 0.017216636 0.1827184
0.060463917 0.015824351 0.18400002
0.038043153 0.020600384 0.18400002
0.042994931 0.021599175 0.18324995
0.047444489 0.02241757 0.18288815
0.052182686 0.02213674 0.18338637
0.05555436 0.020931372 0.18390912
0.024486102 -0.0068405303 0.1877083
0.026864767 -0.0060579907 0.18604544
0.030235732 -0.0050952705 0.18900001
0.067079969 -0.0069725523 0.18717998
0.024665331 -0.0028450494 0.18586367
0.026986115 -0.0035199749 0.18573332
0.030659249 -0.0038828279 0.18757145
0.06469211 -0.0046874657 0.185
0.067491814 -0.0048874449 0.185
0.024791045 0.0021272781 0.18800001
0.025834449 0.002620412 0.18708162
0.027738431 0.0082044331 0.18662071
0.030324319 0.0093253357 0.18500002
0.063535124 0.0085575925 0.186
0.065248109 0.0083887065 0.18900001
0.028842842 0.012321557 0.18716218
0.030477641 0.012936807 0.18572725
0.063346572 0.012961367 0.18664514
0.029467311 0.01617874 0.18842106
0.032615852 0.01777293 0.18651313
0.035492495 0.019411484 0.18525
0.059268218 0.018640189 0.18614815
0.062824622 0.017849488 0.18775344
0.065171495 0.016918344 0.18900001
0.067524731 -0.010674396 0.19400001
0.06745974 -0.0093116406 0.19350001
0.02485035 0.004736186 0.19000001
0.025158426 0.004736186 0.19000001
0.024893947 0.0054654996 0.19033335
0.025833813 0.0075104218 0.19050001
0.066590242 0.0072171227 0.19182144
0.026694471 0.012512644 0.19193754
0.065832935 0.010636416 0.19022225
0.028138215 0.017165527 0.19247371
0.030395711 0.019677848 0.19000001
0.027183702 -0.015421364 0.19900003
0.063940339 -0.015481208 0.19880001
0.024371287 -0.011561953 0.19691668
0.026445411 -0.013607815 0.19757994
0.030544832 -0.013431574 0.19900002
0.064090684 -0.012650885 0.19759999
0.066013426 -0.012225912 0.19543654
0.024028789 -0.009999766 0.19500002
0.064486124 -0.0089421021 0.19820002
0.066070087 -0.0075218263 0.19655544
0.064743385 -0.0027695259 0.19800001
0.06567575 -0.004264012 0.19723532
0.025450412 0.013915171 0.19528574
0.028971156 -0.016345164 0.20059377
0.03261628 -0.016856655 0.20265558
0.059252549 -0.017064836 0.20377782
0.06156097 -0.016573135 0.20209591
0.029525146 -0.014696106 0.20040002
0.032008961 -0.013059839 0.20196559
0.059494395 -0.014298293 0.20400003
0.062268816 -0.012577723 0.20219627
0.063844159 -0.007816446 0.20265161
0.065072738 -0.0065459297 0.20060001
0.064446822 -0.0037237352 0.20273913
0.065332361 -0.0037606708 0.2006667
0.038472183 -0.020261319 0.20611113
0.042633124 -0.020756265 0.20699987
0.04763177 -0.020818597 0.20699987
0.052409839 -0.020561909 0.2069499
0.056002639 -0.020250397 0.20600002
0.034390878 -0.015631495 0.20500003
0.037506253 -0.017372794 0.2064604
0.042394817 -0.017496724 0.20802423
0.04747444 -0.017854813 0.20825894
0.05262002 -0.017250335 0.20780571
0.056827907 -0.017587498 0.20577866
0.034240641 -0.012341958 0.20650001
0.036922257 -0.013103259 0.20806251
0.040551826 -0.014445411 0.20900001
0.053868242 -0.013850974 0.20888469
0.057685848 -0.012644977 0.20721215
0.060910981 -0.011211225 0.20547217
0.034105171 -0.0076424759 0.20763415
0.035197474 -0.0079388572 0.20900002
0.058922485 -0.0084015438 0.20821744
0.061704017 -0.0073780338 0.20646667
0.034428518 -0.0047041769 0.20783333
0.038070451 -0.0026408879 0.20819451
0.042777218 -0.0010061279 0.20894293
0.045804512 -0.00080536946 0.20900001
0.054045148 -0.00064046634 0.20833336
0.057796255 -0.0008191606 0.20785719
0.062590264 -0.0026235029 0.20759481
0.044166576 0.00012655887 0.20900002
0.05340457 0.00046153323 0.20743479
0.057052888 0.00032832121 0.20643477
0.06047 0.00012534778 0.20700002
0.043469891 -0.015326499 0.21000002
0.047703508 -0.015467939 0.21000004
0.050393485 -0.015309039 0.21000001
0.038418937 -0.011265698 0.21030439
0.042559087 -0.012486704 0.2108853
0.047489874 -0.012537475 0.21146771
0.052185122 -0.012164186 0.21095458
0.055780444 -0.010941991 0.21005559
0.037656203 -0.0076143676 0.2115123
0.042631868 -0.0074945218 0.21347499
0.047090411 -0.0081113353 0.21364777
0.052948453 -0.0077421139 0.21345623
0.056977611 -0.007149911 0.2117611
0.06026854 -0.0056034457 0.21040002
0.038459536 -0.0040005031 0.21214287
0.042577509 -0.0033126334 0.21258833
0.047707215 -0.0028193467 0.21276858
0.052378573 -0.0027015766 0.21201722
0.057430193 -0.0031638686 0.21134382
0.060601648 -0.0038479478 0.21012503
0.048861213 0.0002406659 0.21000002
0.051170535 0.0004152836 0.21000002
0.048607789 -0.0066543291 0.21500006
0.050768282 -0.0070744506 0.21500005
