# .PCD v0.7 - Point Cloud Data file format
VERSION 0.7
FIELDS x y z
SIZE 4 4 4
TYPE F F F
COUNT 1 1 1
WIDTH 136
HEIGHT 1
VIEWPOINT 0 0 0 1 0 0 0
POINTS 136
DATA ascii
0.077677727 -0.021016123 0.2080159
0.082098246 -0.020752992 0.2067083
0.087661363 -0.020425351 0.20635481
0.092696458 -0.021117702 0.20726915
0.095560603 -0.021791153 0.2085
0.078327686 -0.017791424 0.20839082
0.082538612 -0.017363138 0.20781049
0.087500744 -0.017458742 0.20766671
0.09127944 -0.017694922 0.20817022
0.083251111 -0.014275971 0.20900007
0.086131603 -0.014208193 0.20900002
0.069310248 -0.022953577 0.21387187
0.072378442 -0.022370627 0.21268132
0.075465202 -0.021625068 0.21127275
0.094715819 -0.020303104 0.21000001
0.097282335 -0.021146884 0.21093333
0.073113799 -0.018352617 0.21370457
0.076278582 -0.017048841 0.21179782
0.089437999 -0.015195536 0.21000001
0.093397848 -0.017140687 0.21007147
0.096639104 -0.018425526 0.21071434
0.078092396 -0.012934034 0.21234863
0.082338184 -0.012215659 0.21106413
0.087577373 -0.012253381 0.21103546
0.092158817 -0.01255356 0.21193747
0.095305465 -0.014617501 0.21400002
0.078835696 -0.0093687447 0.2138
0.08259736 -0.0085721705 0.21348354
0.087285988 -0.0083469115 0.21320231
0.091338724 -0.0092479289 0.21330775
0.063317537 -0.027147232 0.21900004
0.067677014 -0.025979532 0.21761289
0.067742288 -0.022653697 0.21626318
0.070302159 -0.024969852 0.215
0.068977922 -0.017886372 0.21710294
0.071448214 -0.016943352 0.21557623
0.097098239 -0.015877258 0.21566668
0.069735751 -0.013586037 0.21869233
0.072584584 -0.012680564 0.21716321
0.076258771 -0.011711515 0.21594343
0.094704978 -0.010676771 0.215
0.096475057 -0.012551259 0.21567304
0.073611498 -0.0087131057 0.2184318
0.07740964 -0.0078128111 0.2166881
0.082278095 -0.0060958359 0.21565513
0.087784842 -0.005865844 0.2152821
0.092867672 -0.0071026189 0.21636778
0.095647156 -0.0076139839 0.21733335
0.079762228 -0.004456846 0.21775001
0.082640946 -0.0029444494 0.21787958
0.0873705 -0.0025809899 0.21757495
0.092022188 -0.0032269978 0.21850002
0.095401645 -0.0048387507 0.21900001
0.087323166 0.00013261432 0.21900001
0.063972145 -0.027683675 0.2200322
0.0659438 -0.027627105 0.2200952
0.064374872 -0.023313431 0.22237501
0.066179313 -0.022229232 0.22162296
0.064600758 -0.019550057 0.22400001
0.067343958 -0.017441673 0.22242463
0.068945192 -0.012912163 0.22242856
0.070170254 -0.010615578 0.22100002
0.069749184 -0.0083088689 0.22399999
0.072009757 -0.007318587 0.22162622
0.077401437 -0.0058553643 0.22120008
0.096907422 -0.0052175648 0.22000001
0.073283181 -0.0039509344 0.22324997
0.07749863 -0.0027827921 0.22225869
0.081141897 -0.0012461764 0.22067647
0.093227059 -0.0011730847 0.22042856
0.097369894 -0.0024077783 0.22204815
0.10427551 -0.032660559 0.22900002
0.064229235 -0.020705298 0.22550003
0.06554585 -0.020877743 0.22500001
0.064125963 -0.017766699 0.22728574
0.065852158 -0.016897988 0.22589192
0.067650244 -0.011806156 0.2259216
0.068604 -0.0075147366 0.22705558
0.070489585 -0.0058950409 0.22550003
0.066483364 -0.035636827 0.23308337
0.10136326 -0.036665775 0.23256145
0.064951815 -0.034467738 0.23200001
0.066301756 -0.034360796 0.23233339
0.10263623 -0.03252957 0.23172288
0.10527472 -0.033145037 0.23
0.10356527 -0.028301284 0.23252544
0.10520269 -0.029765535 0.23200001
0.064951822 -0.011270197 0.23200002
0.066010587 -0.011115052 0.23170832
0.064951815 -0.0085115703 0.23200001
0.066640146 -0.007244823 0.23170765
0.070980594 -0.040351797 0.23900001
0.098115861 -0.04071641 0.23861115
0.068710566 -0.038073234 0.23644
0.070810832 -0.038330048 0.23857687
0.098780036 -0.03771067 0.23805274
0.10018819 -0.037220698 0.23550004
0.099569969 -0.033383239 0.23885714
0.10096017 -0.032262839 0.23748221
0.10179047 -0.028567914 0.23756662
0.07351245 -0.041407086 0.24039996
0.0779192 -0.041649383 0.24243748
0.082556136 -0.042086925 0.24372509
0.087446958 -0.042053055 0.24362917
0.092335783 -0.041707095 0.24194621
0.096060842 -0.041557789 0.24003696
0.073244296 -0.037451752 0.24095158
0.076893628 -0.037869751 0.24337508
0.080576047 -0.039316718 0.24400002
0.088844799 -0.039217811 0.24399999
0.092973098 -0.037766423 0.24275252
0.096282236 -0.037208784 0.2407272
0.073078573 -0.034547675 0.24190912
0.075037174 -0.034272388 0.24400002
0.094686985 -0.034404267 0.24400002
0.097764 -0.032801948 0.24210522
0.099239402 -0.028603805 0.24347223
0.10103313 -0.028165191 0.24160613
0.083488427 -0.040371671 0.245
0.085673332 -0.040371671 0.245
0.078529879 -0.036071416 0.24528567
0.082581811 -0.037335899 0.24618009
0.087398082 -0.037185717 0.24647577
0.091316752 -0.035990406 0.24589191
0.078157872 -0.033229839 0.24625456
0.082509279 -0.032329671 0.24811243
0.087202549 -0.033338808 0.24879991
0.09269803 -0.032540109 0.24774268
0.096013263 -0.031271305 0.24577498
0.085457124 -0.029726053 0.24900001
0.093135491 -0.028492263 0.24869703
0.096779101 -0.028232526 0.24619356
0.087827146 -0.031196643 0.25
0.090816677 -0.030656163 0.25
0.088553026 -0.029123485 0.25033334
0.091124095 -0.028980667 0.25
