# .PCD v0.7 - Point Cloud Data file format
VERSION 0.7
FIELDS x y z
SIZE 4 4 4
TYPE F F F
COUNT 1 1 1
WIDTH 128
HEIGHT 1
VIEWPOINT 0 0 0 1 0 0 0
POINTS 128
DATA ascii
0.029491138 -0.076500282 0.29900002
0.032405302 -0.076094627 0.2985909
0.037373651 -0.075833276 0.29799998
0.042084984 -0.075751767 0.2989167
0.033141296 -0.074353747 0.29899997
0.037524194 -0.07376387 0.29884991
0.041433714 -0.074383266 0.29900005
0.020865262 -0.080572769 0.30399999
0.023089116 -0.077634327 0.30384088
0.027085578 -0.076175131 0.30123341
0.044344962 -0.075215757 0.30000001
0.047962829 -0.075580582 0.30000001
0.051767349 -0.075956441 0.30147064
0.024972934 -0.074000493 0.30400002
0.027907213 -0.073038794 0.3027322
0.032300629 -0.072026275 0.30098301
0.037574276 -0.071135141 0.30056107
0.042774849 -0.072073124 0.30049208
0.047618907 -0.072597817 0.30135208
0.051353328 -0.0730545 0.30278122
0.029737836 -0.069646358 0.30400002
0.032909207 -0.067905307 0.30350009
0.037590712 -0.067606203 0.30290645
0.042288147 -0.067699231 0.3029092
0.046751432 -0.068669409 0.30351517
0.050276205 -0.069646358 0.30400002
0.034584891 -0.064881459 0.30400002
0.038478967 -0.064634994 0.30399999
0.040992863 -0.064881459 0.30400002
0.018409671 -0.081291132 0.30500001
0.057093028 -0.080651835 0.30775002
0.018238228 -0.077612221 0.30557454
0.021542093 -0.076263309 0.30505553
0.054335821 -0.076856345 0.30588889
0.056785792 -0.077422135 0.30718422
0.018333882 -0.073009528 0.30789995
0.022459354 -0.072520494 0.30708954
0.026352616 -0.071115844 0.30526316
0.053634658 -0.072062992 0.30605885
0.057000943 -0.072731152 0.30797911
0.024067257 -0.0683349 0.30877277
0.027447419 -0.06732782 0.30635482
0.031131502 -0.066283889 0.30513039
0.036676828 -0.065094881 0.30500001
0.04385994 -0.065524787 0.30508339
0.048009485 -0.066470727 0.30607319
0.052508354 -0.067468889 0.30732831
0.056232695 -0.067809545 0.30900002
0.028302286 -0.063298807 0.30822578
0.032506973 -0.062605113 0.30684051
0.037364639 -0.062122677 0.30591303
0.042553235 -0.062321473 0.30635712
0.04756245 -0.062395472 0.30812493
0.051516242 -0.063838981 0.30900002
0.033673972 -0.0590274 0.30883336
0.038068 -0.058774445 0.308579
0.042308331 -0.058783267 0.30861542
0.046802633 -0.059184715 0.30900002
0.018641355 -0.070329018 0.31020004
0.020941978 -0.070183203 0.31
0.019209974 -0.067982137 0.31194738
0.022043876 -0.067098923 0.31093621
0.054619499 -0.065156713 0.31
0.05573269 -0.066214763 0.31025001
0.019515079 -0.064809464 0.31400001
0.022909028 -0.063078985 0.31323409
0.026833175 -0.061874043 0.31091896
0.052376375 -0.062387411 0.31069562
0.055122148 -0.064151414 0.31
0.024606433 -0.059718113 0.31400001
0.02790617 -0.057993107 0.31250951
0.032116767 -0.057314511 0.3110556
0.037218206 -0.057041336 0.31062794
0.042627662 -0.056714047 0.31042111
0.047820341 -0.057310801 0.31160384
0.051025309 -0.058917917 0.31261539
0.029471504 -0.054061044 0.31400004
0.032882433 -0.053329505 0.31318617
0.037503831 -0.053259354 0.31278574
0.046323545 -0.053766821 0.31347376
0.018996788 -0.062504724 0.31582612
0.021340556 -0.061205376 0.31515005
0.053861219 -0.060868792 0.31572729
0.056814007 -0.060948942 0.3176429
0.019325444 -0.058633048 0.31800002
0.022430476 -0.057521366 0.31698442
0.026003826 -0.056019075 0.31573334
0.049882129 -0.055481732 0.31500003
0.05305519 -0.057221457 0.31620753
0.056857236 -0.05773066 0.31788233
0.057019554 -0.090923898 0.32257143
0.057593226 -0.088650681 0.32243749
0.05793801 -0.065183088 0.32000002
0.058322072 -0.06401702 0.32040003
0.054219358 -0.093328111 0.32800004
0.055502824 -0.091506019 0.32550001
0.023387369 -0.095140144 0.33033335
0.02776897 -0.096258231 0.3335484
0.031363718 -0.097640358 0.33400008
0.036643967 -0.099987134 0.33400005
0.04341352 -0.099039398 0.33400005
0.047566663 -0.096882783 0.33341855
0.051368643 -0.096367352 0.33169994
0.022368588 -0.092593886 0.33093345
0.026860317 -0.09246926 0.33308691
0.048918612 -0.092882581 0.33377281
0.052355602 -0.092255346 0.33234617
0.022607207 -0.089756645 0.33111116
0.026508778 -0.089180313 0.33308336
0.052607916 -0.088607147 0.33292007
0.055099327 -0.089428455 0.33100003
0.038745359 -0.10028651 0.33500001
0.040012792 -0.1002865 0.33500001
0.033056505 -0.096747041 0.33500001
0.037374448 -0.097337805 0.33499998
0.042387899 -0.097197808 0.33499995
0.045987833 -0.09539783 0.33500001
0.029474987 -0.091867112 0.33500001
0.032544665 -0.092610799 0.33559191
0.037422918 -0.092841148 0.33642864
0.042522371 -0.092817597 0.33605665
0.046811022 -0.092019819 0.33518752
0.029329594 -0.088955179 0.33528575
0.032632455 -0.089346759 0.33676186
0.037620883 -0.089498989 0.3376956
0.042390857 -0.088919066 0.33762854
0.047481772 -0.08858946 0.33623081
0.050333321 -0.08806482 0.33500001
