# .PCD v0.7 - Point Cloud Data file format
VERSION 0.7
FIELDS x y z
SIZE 4 4 4
TYPE F F F
COUNT 1 1 1
WIDTH 83
HEIGHT 1
VIEWPOINT 0 0 0 1 0 0 0
POINTS 83
DATA ascii
0.0058612456 -0.09901043 0.33900002
-0.0077581853 -0.10116729 0.34271428
-0.0028833817 -0.10053006 0.34112504
0.002025424 -0.10042393 0.34100002
0.012766812 -0.10026415 0.34066671
0.017422024 -0.10087984 0.34337503
-0.0065853996 -0.097586863 0.34306249
-0.002541495 -0.097423509 0.3412725
0.0023025412 -0.097476624 0.34036732
0.0074136406 -0.097245067 0.3401556
0.01262181 -0.097414263 0.3414354
0.017125065 -0.098469138 0.34351996
-0.0052078818 -0.093777418 0.34400001
-0.0018920455 -0.093382977 0.34333333
0.0026336033 -0.09275791 0.34274989
0.0075577111 -0.093800865 0.34188235
0.011835825 -0.094028339 0.34247059
0.022058094 -0.10530675 0.34800002
-0.010647658 -0.10218044 0.34625
-0.0096982233 -0.10048313 0.34500003
0.019334501 -0.10200811 0.34511113
0.0222477 -0.1028042 0.34746146
-0.010639719 -0.097859919 0.34761539
-0.0087732319 -0.096712522 0.34563166
0.014915389 -0.095448524 0.34500003
0.017808389 -0.096612953 0.34550005
0.021040488 -0.097618595 0.34737933
-0.010376553 -0.094857514 0.34900001
-0.0071009547 -0.093216307 0.34765711
-0.0028497041 -0.0912617 0.34634626
0.0036683492 -0.090907432 0.34522223
0.0077937604 -0.091620564 0.34590012
0.012729712 -0.092232428 0.34600011
0.01706562 -0.092794888 0.34768745
0.020730663 -0.094295047 0.34871429
-0.0052835778 -0.0894816 0.34900001
-0.0024079701 -0.087804079 0.34845102
0.0025955893 -0.087554164 0.34726781
0.0075552147 -0.08769571 0.34782144
0.012065547 -0.088460423 0.34827027
0.015349649 -0.089635938 0.34850001
-0.001528152 -0.084260009 0.34900001
0.0023558841 -0.084133998 0.34900001
0.0065191891 -0.084509887 0.34900004
-0.012845493 -0.1016598 0.35100004
0.024447775 -0.10052186 0.3506667
-0.012591408 -0.09714637 0.35223532
0.023702586 -0.097408824 0.35140002
-0.010980411 -0.09293469 0.35222223
-0.0084963702 -0.091611005 0.35095453
0.018589098 -0.090884961 0.35026667
0.02133425 -0.092214599 0.35131577
-0.0071582603 -0.087662742 0.35179415
-0.0047312099 -0.086049199 0.35000002
0.013526318 -0.086406142 0.35029998
0.017579062 -0.087525047 0.3524445
0.020725533 -0.088371933 0.35400003
-0.0060864915 -0.082943477 0.3533572
-0.0026586088 -0.082053162 0.35171431
0.0026040406 -0.081576206 0.3508572
0.0076643685 -0.08232069 0.35075006
0.012475445 -0.082570754 0.35191074
0.016189888 -0.0832038 0.35352638
-0.0012593216 -0.079242706 0.35400003
0.0030997156 -0.078407377 0.35322228
0.0076649818 -0.078498401 0.35310352
0.01157935 -0.078950845 0.35364708
-0.013433021 -0.095912687 0.35500002
-0.013007357 -0.092228808 0.35796559
0.021983368 -0.090651736 0.35525
-0.011168041 -0.087638535 0.3576
-0.0087750172 -0.086362079 0.35544443
0.019952638 -0.08555162 0.35500002
0.021893239 -0.086774372 0.35565001
-0.010254074 -0.083654515 0.35885718
-0.0078176241 -0.081802987 0.35690004
-0.0042231837 -0.080371089 0.35500002
0.014772104 -0.080371089 0.35500002
0.018122835 -0.081788033 0.35551605
0.02134162 -0.08234413 0.3569091
-0.014789661 -0.090258904 0.36000001
-0.01365174 -0.087295957 0.3600477
-0.011842211 -0.082761124 0.36161906
