# .PCD v0.7 - Point Cloud Data file format
VERSION 0.7
FIELDS x y z
SIZE 4 4 4
TYPE F F F
COUNT 1 1 1
WIDTH 218
HEIGHT 1
VIEWPOINT 0 0 0 1 0 0 0
POINTS 218
DATA ascii
-0.0069434177 0.01460881 0.15378575
-0.002314959 0.014622917 0.15264706
0.0027093897 0.014499743 0.15287995
0.0078402916 0.014239913 0.15323529
0.010471535 0.013860984 0.15400004
-0.0070454064 0.016699526 0.15380117
-0.0022747898 0.017149834 0.15285096
0.0025831624 0.016869828 0.15321773
0.0071707764 0.016718425 0.15340982
0.010312633 0.015552157 0.15400004
-0.0052922028 0.020247877 0.15400003
-0.0013983337 0.020371789 0.15400003
-0.015873002 0.0087942351 0.15831251
-0.014863648 0.0097338771 0.15850002
-0.015417988 0.013134969 0.15854548
-0.012801541 0.014078405 0.1568214
-0.0090638595 0.014380204 0.15535715
0.01315557 0.013693305 0.15604675
0.015989827 0.013088504 0.15814288
-0.015039849 0.015822724 0.15900001
-0.012108474 0.017361701 0.15716679
-0.0082004219 0.018669728 0.15530512
-0.0038128046 0.019152528 0.15523809
0.0020993941 0.019103376 0.15521283
0.0082702832 0.018814592 0.15541795
0.012472696 0.017520521 0.15721366
0.015515653 0.016630298 0.15884614
-0.011110408 0.02097464 0.15896665
-0.0073106382 0.022336293 0.15706678
-0.002636719 0.022640418 0.1561991
0.0025429982 0.02250527 0.15682887
0.0074508511 0.022502948 0.15736309
0.011102963 0.021757042 0.1583973
-0.0073313126 0.025696868 0.15900002
-0.0019382872 0.026235163 0.1585075
0.0024580264 0.02620942 0.1588462
0.0067259446 0.026003489 0.15899995
-0.0166355 0.0092816195 0.16045003
0.01889977 0.0088542625 0.16248894
0.020120187 0.0099382671 0.164
-0.020237435 0.010768551 0.16350001
-0.017308131 0.012197062 0.16136363
-0.014967976 0.012497531 0.16100001
0.018283116 0.012173469 0.16171543
0.020241713 0.011529589 0.16266668
-0.017077761 0.017117018 0.16315274
-0.014542794 0.019196471 0.16033335
0.014732672 0.019586716 0.16000001
0.016650891 0.017851159 0.16087359
-0.015580201 0.020791013 0.1627143
-0.012652897 0.022803616 0.16192304
-0.0095555121 0.023883333 0.16022225
0.0089927381 0.024742926 0.16000001
0.013272748 0.022840856 0.16118178
0.016048534 0.02213417 0.16303892
-0.010933691 0.026366001 0.16319054
-0.0072590709 0.027753687 0.16151373
-0.0027804784 0.028286796 0.16089091
0.0024315498 0.028266028 0.16059479
0.0077673956 0.027919456 0.16098657
0.012018399 0.027128229 0.16266885
0.015134227 0.025295019 0.164
-0.0063846167 0.031921685 0.16329212
-0.0024409462 0.032026757 0.16302267
0.0024562648 0.031801261 0.16324989
0.0073453849 0.03139694 0.16327175
0.01086073 0.030721674 0.16395241
-0.00030230137 0.035306826 0.16400002
0.00044226853 0.035200458 0.164
0.021144645 0.0046237498 0.16900001
-0.021067938 0.0088861575 0.1674722
-0.019465502 0.0097687691 0.16625001
0.019443244 0.0068143723 0.16627274
0.021193303 0.0074827396 0.16745453
-0.020986555 0.010178491 0.16575001
0.019610506 0.014449747 0.16500001
0.020844284 0.011746658 0.16712502
-0.017688254 0.019139793 0.16499999
0.019115057 0.017440384 0.1670984
0.021140054 0.017881311 0.16833335
-0.016837189 0.022750778 0.16706897
-0.014135925 0.024847295 0.16500001
0.017745476 0.022853864 0.16636363
0.021916896 0.023668488 0.16899997
-0.016103575 0.026125655 0.16852941
-0.012973015 0.02792733 0.16607149
-0.0098998863 0.029440051 0.16500001
0.014129587 0.028794527 0.16597614
0.016702589 0.027413728 0.1673772
0.022024602 0.026743304 0.1686818
-0.012032722 0.032143991 0.16797361
-0.0086906757 0.033141766 0.16627538
-0.0026446711 0.033951819 0.16506815
0.0027220501 0.034227431 0.16549997
0.0077816783 0.033879582 0.16556004
0.012709804 0.032673381 0.16698138
0.01573956 0.031560101 0.168697
-0.0220927 0.003578359 0.17375001
0.01991394 0.0036890742 0.17350002
0.021106459 0.0035705506 0.17211764
-0.021574646 0.0068068583 0.17094444
-0.019779416 0.0064807106 0.171
0.020029351 0.0050645792 0.17
0.020580644 0.018674623 0.16999999
0.019380301 0.023242809 0.17194736
0.020931108 0.022346951 0.17249995
-0.016993934 0.028067099 0.17119606
0.019153623 0.027743133 0.17239128
0.0209061 0.027188331 0.17225997
0.021248637 0.030884294 0.17320003
-0.020704769 -0.00034769819 0.17900001
-0.019543812 -0.0014219614 0.17900002
0.018801028 -0.00059386756 0.17743477
0.020308208 -0.0001787993 0.17600001
-0.021225013 0.0025440629 0.17721523
0.019064248 0.0014904442 0.17640546
0.020719936 0.0013619697 0.17530771
-0.021182187 0.0064036157 0.17799997
-0.019666769 0.0086310981 0.1788
0.021185957 0.019968731 0.17500001
0.020902203 0.022238761 0.17500001
0.019767189 0.029616358 0.17500001
0.020523867 0.02961636 0.17500001
0.014518504 -0.0052588219 0.18400002
0.01503305 -0.005230241 0.18300001
-0.020236716 -0.0001828629 0.18000001
-0.017834796 -0.001833508 0.18260439
0.01438128 -0.0031369852 0.18331037
0.016643481 -0.0024341829 0.18199998
-0.020427551 0.0029378044 0.18000002
-0.018726727 0.0022806954 0.18217756
0.014518504 0.00026059363 0.18400002
0.016825544 0.0014299427 0.18298148
-0.020422317 0.0061161374 0.18020004
-0.019068446 0.0068552536 0.18210174
-0.019069271 0.010178202 0.18000001
-0.011748378 -0.0053982479 0.18748386
-0.0073409565 -0.0060362816 0.18874398
-0.0034596222 -0.0069558844 0.1890001
0.0043050037 -0.0071933027 0.18900003
0.007743509 -0.0064236596 0.18832953
0.011791303 -0.0060220207 0.18648334
-0.015581178 -0.0020843938 0.18528943
-0.012853101 -0.0027306075 0.18708035
-0.0089724446 -0.0042512552 0.18895006
0.0086234016 -0.0036103236 0.18878731
0.012071728 -0.0025392547 0.18702634
-0.016463559 0.0028121604 0.18674769
-0.013807242 0.0014429705 0.18838578
0.013420068 0.0018010869 0.18805204
0.016512638 0.0037615364 0.18561016
-0.017222708 0.0071661305 0.18744001
0.014588202 0.006052875 0.18833335
0.016558902 0.0069672167 0.18704002
-0.017712045 0.012053567 0.18744737
-0.012876234 0.014287135 0.18833336
-0.008158586 0.014824242 0.18900003
0.0038806824 0.012372608 0.18900001
0.0087226555 0.014211335 0.18900004
0.012147308 0.013206162 0.188875
0.01537271 0.010993565 0.18900001
-0.01511947 0.015283923 0.18900001
-0.011477778 0.015840547 0.18783337
-0.0082044108 0.016051451 0.18834487
0.0070984494 0.015130696 0.18900001
-0.0016532053 -0.0062911045 0.18999988
0.0021658738 -0.006422848 0.19007517
0.0055750208 -0.0054090503 0.19062501
-0.010930841 -0.0015139828 0.19017147
-0.0072572799 -0.0023340043 0.19089936
-0.0024232129 -0.002546503 0.1917371
0.002647565 -0.002724458 0.19163159
0.006872124 -0.00202194 0.19092777
0.010165418 -0.00086051889 0.19000003
-0.011775421 0.0028256262 0.19146223
-0.0077627939 0.0018866386 0.19311729
-0.0030350101 0.00093199441 0.19345768
0.0036471465 0.0011358242 0.19353999
0.0077809673 0.0020167092 0.19297701
0.011672376 0.0030039279 0.1907807
-0.015739011 0.0083038742 0.19059578
-0.013104831 0.0073004817 0.19222908
-0.0098573528 0.005150456 0.19400001
0.012764687 0.0076290653 0.19234556
0.015339463 0.0091889901 0.19050001
-0.016146315 0.012300769 0.19110471
-0.012517964 0.012449392 0.19211034
-0.0072547537 0.01285958 0.19122954
-0.0030282782 0.012274261 0.1923724
0.0038785201 0.012207801 0.19224191
0.0073808506 0.012525513 0.19188437
0.012169794 0.011729499 0.19183153
0.015339462 0.010463043 0.19050001
-0.016112672 0.015382341 0.19060002
-0.0057785073 0.015443126 0.19050002
0.0043739639 0.015485233 0.19342859
0.0054988726 0.015059547 0.192
0.00113238 -0.00090986758 0.19508335
-0.0066548106 0.0041535716 0.19500007
-0.0021315608 0.0033285685 0.1955727
0.0020176382 0.0030037698 0.19567575
0.0065254648 0.0043553412 0.19510718
0.010011352 0.0048608221 0.19500001
-0.010872847 0.0080067646 0.19554171
-0.0075153946 0.007614512 0.19610476
-0.0025601324 0.007557075 0.19684669
0.0025768804 0.0075751501 0.19670893
0.0074554645 0.007702834 0.19580384
0.010383064 0.0077506467 0.19520006
-0.010783751 0.011091446 0.19560003
-0.0081224116 0.01080558 0.1958621
-0.0014969764 0.01229143 0.19664057
0.0012960967 0.012290047 0.19663629
0.0076795034 0.010650919 0.19499999
0.010169443 0.010552112 0.19500001
-0.00095846836 0.016132304 0.19881816
0.0021650395 0.01572652 0.19743754
-0.0030278384 0.014714157 0.2
