# .PCD v0.7 - Point Cloud Data file format
VERSION 0.7
FIELDS x y z
SIZE 4 4 4
TYPE F F F
COUNT 1 1 1
WIDTH 165
HEIGHT 1
VIEWPOINT 0 0 0 1 0 0 0
POINTS 165
DATA ascii
0.071778335 0.0044619734 0.16393106
0.077085517 0.0048560379 0.163
0.0859835 0.0047679394 0.16300002
0.073075838 0.0068282518 0.16359559
0.077403001 0.0076185381 0.16288199
0.082268722 0.0070856153 0.16275778
0.085594811 0.0065456 0.16341183
0.077715568 0.010554712 0.16400003
0.080217615 0.010204185 0.164
0.064625278 0.0032119255 0.16899997
0.067264102 0.0037096525 0.16681202
0.070649713 0.0039549111 0.16499999
0.064851642 0.0050347876 0.16900001
0.068284206 0.0073354887 0.1674342
0.071582526 0.0085433898 0.16568151
0.075088426 0.0099988664 0.16500001
0.083181486 0.0093403086 0.16499999
0.086726628 0.0088425335 0.16572219
0.068971813 0.010828461 0.169
0.072633669 0.012135551 0.1673646
0.077490151 0.012780611 0.16659683
0.082461335 0.012575572 0.16637138
0.086843923 0.012098596 0.16756244
0.074127391 0.015571049 0.16899997
0.077929154 0.016515689 0.16878901
0.082264945 0.016633483 0.16857864
0.085440241 0.01597305 0.16893749
0.062029339 -0.00029198348 0.17305885
0.062846996 0.002477335 0.17247751
0.065563016 0.0014889149 0.171
0.064246953 0.0065659001 0.17256919
0.066119447 0.007923563 0.17078012
0.067427352 0.012564846 0.17201151
0.071035944 0.01377448 0.17072341
0.089183778 0.014281304 0.17169233
0.090661563 0.014347283 0.17222223
0.068538591 0.015952397 0.17324135
0.072608121 0.017404191 0.17163253
0.076925762 0.018894164 0.17060918
0.082933523 0.019240178 0.17103446
0.087673344 0.017839009 0.17250003
0.090436757 0.016392995 0.17393751
0.073624365 0.021533212 0.17353423
0.077466868 0.022284146 0.1729631
0.082209773 0.022173822 0.17297795
0.086685479 0.021267736 0.17362955
0.059671611 -0.0014170021 0.17668426
0.060871467 -0.001167602 0.17544121
0.059815254 0.0010003528 0.1768889
0.060710385 0.0031679536 0.1762667
0.062503196 0.0076959017 0.17662585
0.065451548 0.009753597 0.17500001
0.063703313 0.012018972 0.17664075
0.06557551 0.013048763 0.17514291
0.0645101 0.016616199 0.17819354
0.06721662 0.017917616 0.17646837
0.071085893 0.019242039 0.17567864
0.089854367 0.019287724 0.17500001
0.091927812 0.018474098 0.1769063
0.068301231 0.021931434 0.17781086
0.071806565 0.02285976 0.17617036
0.076599024 0.024670938 0.175
0.083332777 0.024459427 0.17508696
0.087675385 0.023401842 0.17586577
0.091493241 0.022950785 0.17836362
0.059458952 -0.0052667218 0.18220001
0.061188303 -0.0066660042 0.18247625
0.059472904 -0.0030145915 0.18214639
0.060973529 -0.0039388933 0.18189658
0.059867218 0.0027965412 0.18400002
0.060500056 0.0034378876 0.1833
0.059867218 0.0056805601 0.18400002
0.060784195 0.0076873284 0.18259326
0.062091943 0.012855189 0.18122502
0.063393712 0.017415395 0.18167616
0.065643385 0.019663684 0.18000001
0.064369217 0.022041274 0.18304087
0.066315971 0.022985673 0.18105051
0.071480609 0.024406426 0.18000001
0.096563675 -0.010743905 0.18833335
0.060985595 -0.008022178 0.18765384
0.09738306 -0.0077396696 0.18764149
0.098324426 -0.0031137222 0.18855563
0.059892617 0.0049115173 0.185
0.060247123 0.0029753589 0.18499999
0.098509543 0.00095626869 0.18858337
0.059714694 0.0079613635 0.18509996
0.060219858 0.0082657076 0.18499999
0.059771802 0.011944555 0.18605267
0.060809996 0.012855093 0.18554099
0.05994935 0.015965136 0.18800001
0.061400548 0.017667759 0.18701944
0.063412249 -0.011226947 0.19159092
0.065867677 -0.012020172 0.19378129
0.094005391 -0.012247636 0.1926001
0.095854841 -0.011748339 0.19102705
0.062779784 -0.009680599 0.19011113
0.065720372 -0.0079611121 0.19194444
0.094230749 -0.0078000682 0.19294114
0.095986925 -0.0071269874 0.19123998
0.094776526 -0.0041479506 0.19385716
0.096817799 -0.0025974552 0.19149616
0.097827174 0.0018537318 0.1907348
0.096464373 0.005150456 0.19400001
0.059978373 0.014416691 0.19275001
0.069265082 -0.015317516 0.19600001
0.072660163 -0.015902484 0.19702567
0.077776961 -0.016236085 0.19897684
0.082787178 -0.016436292 0.19877319
0.087510332 -0.016246062 0.19761187
0.091097973 -0.015492129 0.19542105
0.068355635 -0.012697536 0.19559366
0.072311133 -0.012815657 0.19786358
0.077186577 -0.01423825 0.19899999
0.083096355 -0.014420484 0.198875
0.088004112 -0.012932984 0.19787157
0.091716677 -0.012375574 0.1956268
0.068731301 -0.0082308091 0.19741862
0.070989177 -0.0087296786 0.19895658
0.089440741 -0.009114231 0.19845003
0.092610121 -0.0075834366 0.19741711
0.069192283 -0.0028238131 0.19709526
0.070947595 -0.0030792092 0.19884621
0.094547063 -0.0034856887 0.19745001
0.095640294 -0.0016947727 0.19595006
0.084969349 0.0036514157 0.19800001
0.088227071 0.0039683818 0.19820377
0.092730545 0.0041091489 0.19713204
0.096379653 0.0024688921 0.19626501
0.088779084 0.0052500139 0.19775002
0.092209935 0.0053004799 0.19526315
0.095760122 0.0051770047 0.19500001
0.074097849 -0.010763781 0.20020002
0.077715605 -0.011767997 0.20076789
0.082417004 -0.01184019 0.20099206
0.086321905 -0.011144559 0.2006667
0.069872558 -0.0061701164 0.2
0.072975293 -0.007342285 0.2012967
0.077387348 -0.0080090212 0.20308425
0.082642481 -0.008078252 0.20333685
0.087552346 -0.0076541784 0.20201387
0.090811566 -0.0060588713 0.20062503
0.069937423 -0.0044189505 0.20000002
0.073125608 -0.0028689383 0.20108691
0.076320633 -0.0020432565 0.20337503
0.081645347 -0.00020724464 0.20400003
0.089520343 -0.0022834563 0.20331578
0.092249133 -0.0025049152 0.20164518
0.095664419 -0.0013549266 0.20135292
0.073791601 0.00018633028 0.20060001
0.078965321 0.00083246303 0.20258334
0.082922369 0.0014853391 0.20239076
0.087524422 0.0015657957 0.20162074
0.092448369 0.00153445 0.20125696
0.095255323 0.0012484607 0.20073333
0.078420855 -0.0059769829 0.2052592
0.08253359 -0.0058744727 0.20526825
0.08722543 -0.0056097163 0.20500001
0.078169532 -0.0030298324 0.20555133
0.082395516 -0.0028155898 0.20580554
0.087306313 -0.0028082314 0.20524634
0.090347067 -0.0029138308 0.20544446
0.077811465 0.00036156329 0.20500003
0.084649354 0.00012413668 0.20500001
0.08564654 0.00012413668 0.20500001
