# .PCD v0.7 - Point Cloud Data file format
VERSION 0.7
FIELDS x y z
SIZE 4 4 4
TYPE F F F
COUNT 1 1 1
WIDTH 162
HEIGHT 1
VIEWPOINT 0 0 0 1 0 0 0
POINTS 162
DATA ascii
-0.0011340915 -0.02526563 0.21885717
0.0029761791 -0.025293706 0.21840002
0.008068528 -0.025611958 0.21899997
0.010675361 -0.026144603 0.21900001
-0.00095381273 -0.023902668 0.21880002
0.0026515429 -0.023823863 0.21867572
0.0069468366 -0.023845343 0.21899997
-0.011191652 -0.026563628 0.22340743
-0.0078965714 -0.026051948 0.22158827
-0.0035501416 -0.025440788 0.22000001
0.012950823 -0.025928218 0.22046508
0.017460445 -0.026794393 0.22305878
-0.010897412 -0.024562282 0.22400001
-0.0067989025 -0.022810627 0.22214945
-0.0026755161 -0.022191325 0.22063357
0.0025017972 -0.02126513 0.22033903
0.008008332 -0.021768248 0.22065876
0.012464393 -0.022486784 0.22199999
0.015923971 -0.023287144 0.22377777
-0.0054493397 -0.019416882 0.22400001
-0.0020213372 -0.018139208 0.22296436
0.0027020527 -0.01753325 0.22271778
0.0074333958 -0.017606501 0.22308953
0.011340467 -0.018661603 0.22369997
0.003665372 -0.014755756 0.22400001
0.0065969541 -0.014755755 0.22400001
-0.016884997 -0.030818082 0.22853848
-0.013897119 -0.030546254 0.22800002
0.021298993 -0.030378124 0.22583334
-0.016638987 -0.028243413 0.22793622
-0.013511757 -0.027631452 0.22640987
0.01908307 -0.02568558 0.22523527
0.021111056 -0.027341781 0.22627278
-0.011723042 -0.022282636 0.22647887
-0.0090384204 -0.021482481 0.22566664
0.018004568 -0.021953452 0.22620229
0.020782687 -0.023111762 0.22839402
-0.010876917 -0.018140258 0.22837043
-0.0074552563 -0.017509816 0.22684096
-0.0030737834 -0.015911661 0.22520511
0.00024194457 -0.015186453 0.22500001
0.0092166709 -0.015332383 0.22500001
0.013025013 -0.016963245 0.22591113
0.016836844 -0.017633045 0.22775325
-0.0060899351 -0.013122927 0.2281819
-0.0024608062 -0.012530239 0.22679457
0.0023787746 -0.012296427 0.22618514
0.0074965418 -0.012301079 0.22674368
0.012222013 -0.012761141 0.22797009
0.015440891 -0.013526972 0.2285625
-0.0014898244 -0.0090966402 0.22882147
0.002385593 -0.0088698315 0.22872919
0.0074868309 -0.0089287721 0.22900006
0.010735812 -0.0094690295 0.229
-0.01623562 -0.031396471 0.23016667
-0.014670019 -0.031187136 0.23
0.023016782 -0.031919234 0.23400001
-0.016575499 -0.025830084 0.23083335
0.022623334 -0.026152534 0.23
-0.016461968 -0.022850558 0.23249997
-0.014464956 -0.021977039 0.23142107
0.022449495 -0.022100534 0.2315999
-0.01568399 -0.019967524 0.23400001
-0.012579123 -0.017040048 0.2315294
-0.0093844431 -0.015619048 0.23090909
0.018766128 -0.016527662 0.23058335
0.020852057 -0.017914519 0.23234093
-0.011288929 -0.012728317 0.23288888
-0.0083681913 -0.012020439 0.23184054
-0.0048494372 -0.010427173 0.23
0.014045862 -0.010675796 0.23000002
0.017653681 -0.012346654 0.23184049
0.020390037 -0.014324117 0.23325002
-0.010498593 -0.0092173116 0.23400001
-0.0069875121 -0.007851176 0.23268257
-0.0028280457 -0.0069706105 0.23074713
0.0025172653 -0.0062493333 0.23034361
0.0074626729 -0.0063466225 0.23047204
0.012587105 -0.0075428518 0.23091994
0.015974108 -0.0084723067 0.23257691
-0.0053995633 -0.0039919256 0.2339
-0.018344278 -0.034345135 0.23900001
0.023726093 -0.033127476 0.23547626
-0.016703617 -0.020052856 0.23500001
0.023713922 -0.020542765 0.23500003
-0.016520761 -0.017943155 0.23765959
-0.014638975 -0.016709326 0.23550001
0.022978328 -0.018037831 0.23630308
-0.015548432 -0.014222275 0.23857144
-0.01345639 -0.012056533 0.23692106
0.01919245 -0.010590861 0.23537502
0.020808233 -0.011820072 0.23637502
-0.011436321 -0.0072573312 0.23655321
-0.0086443098 -0.0062456909 0.23550008
0.013843153 -0.005361618 0.23500003
0.017917534 -0.0070236893 0.23625004
0.0204945 -0.0077802339 0.23850001
-0.017392751 -0.040390074 0.24377778
-0.020060863 -0.035804853 0.24100001
-0.017489141 -0.03734294 0.24244778
-0.018091252 -0.034803167 0.24083334
-0.016295671 -0.012456558 0.24100004
-0.0149187 -0.010556239 0.24000001
0.018881101 -0.045343786 0.24866669
-0.015870258 -0.041845456 0.24675006
-0.014005422 -0.042227756 0.24832502
0.019155806 -0.043531936 0.24865
0.021932995 -0.041781161 0.24814285
-0.015632853 -0.037023548 0.24706253
-0.014458647 -0.037997946 0.24848282
0.021666029 -0.03981958 0.24900001
-0.015533387 -0.03435424 0.24860001
-0.014428424 -0.034005709 0.24900003
-0.011173246 -0.045541734 0.25086665
-0.0074575823 -0.046632804 0.25310773
-0.0030943374 -0.048323158 0.25399998
0.0015086737 -0.049380302 0.25399998
0.0097456407 -0.048650213 0.25400001
0.012454945 -0.046963688 0.25353727
0.016594281 -0.046065774 0.25125921
-0.011593793 -0.042379182 0.25060004
-0.0086395899 -0.042738531 0.2531406
0.013317461 -0.043296602 0.2536667
0.01692375 -0.042039964 0.25161546
0.020699097 -0.042208996 0.25
-0.012247799 -0.037737228 0.25193423
-0.009536013 -0.039288871 0.25383335
0.017983284 -0.037985817 0.25251433
0.021155918 -0.038270872 0.25099999
-0.012939668 -0.034146138 0.25220004
0.018394455 -0.034853294 0.25400001
-0.0051009031 -0.045947459 0.25500003
-0.002121602 -0.046742719 0.25510353
0.0026575816 -0.047170337 0.25511357
0.0073040528 -0.047458854 0.2550379
0.010335302 -0.045878552 0.25500005
-0.0063471161 -0.041913003 0.25557691
-0.002474267 -0.042502284 0.25654799
0.0026168015 -0.042495143 0.25751618
0.0075590643 -0.042601075 0.25674993
0.011554321 -0.041923586 0.25546438
-0.010429259 -0.03642907 0.25512505
-0.0072722812 -0.037345793 0.25712904
-0.0027962332 -0.03836358 0.25864807
0.0025582637 -0.039498966 0.25899997
0.0082818894 -0.038721558 0.25879994
0.012652247 -0.037416037 0.25715303
0.016083511 -0.036319293 0.2553637
-0.010723648 -0.033741854 0.25534791
-0.0084388526 -0.033696208 0.25775859
0.013275211 -0.034267277 0.25812498
0.016750462 -0.03458545 0.25553852
-0.0054117092 -0.035255022 0.26000002
-0.0018823004 -0.03619184 0.26030007
0.0026662729 -0.037159592 0.26061845
0.0072640502 -0.036574502 0.26046008
0.010537956 -0.035395548 0.26000005
-0.0061853416 -0.033198517 0.26003715
-0.0023907202 -0.033526819 0.26147273
0.0025749565 -0.033659089 0.26214594
0.0075068786 -0.033733986 0.26151162
0.010892603 -0.033719867 0.26008335
