# .PCD v0.7 - Point Cloud Data file format
VERSION 0.7
FIELDS x y z
SIZE 4 4 4
TYPE F F F
COUNT 1 1 1
WIDTH 86
HEIGHT 1
VIEWPOINT 0 0 0 1 0 0 0
POINTS 86
DATA ascii
-0.082171723 -0.050405048 0.26399997
-0.077380121 -0.050332464 0.26389998
-0.072315581 -0.050351541 0.264
-0.069204986 -0.050351541 0.264
-0.081583135 -0.049673777 0.26399997
-0.077086054 -0.047964178 0.26398695
-0.072769322 -0.048373889 0.26399994
-0.069325723 -0.049231995 0.26399997
-0.08673244 -0.050339509 0.26620004
-0.084792532 -0.050112583 0.26500002
-0.066663295 -0.050702434 0.26534781
-0.062175211 -0.051421955 0.26745003
-0.059466042 -0.052177511 0.26900002
-0.086554468 -0.047423691 0.26666099
-0.082461417 -0.047059562 0.2658194
-0.079449765 -0.046590053 0.26533335
-0.071742609 -0.046481673 0.26503569
-0.067319252 -0.04722872 0.26595607
-0.063477799 -0.04770923 0.26756665
-0.086132757 -0.044097938 0.2688182
-0.082735807 -0.042426638 0.26854277
-0.077344298 -0.042507328 0.26635802
-0.072473861 -0.042642705 0.26640779
-0.067772351 -0.042711332 0.26807597
-0.064591043 -0.044326447 0.26900002
-0.082583055 -0.039528579 0.26900002
-0.077604972 -0.038905803 0.26856256
-0.072474733 -0.03940532 0.26884618
-0.068577148 -0.039334729 0.26900002
-0.057942178 -0.055417657 0.27287501
-0.060212459 -0.052108806 0.27000001
-0.058435254 -0.052619342 0.2718071
-0.061190307 -0.047071565 0.27101681
-0.059208203 -0.048273616 0.27284378
-0.087443344 -0.042027827 0.27077505
-0.065801106 -0.041034117 0.2703
-0.06271331 -0.04269645 0.27201113
-0.086914174 -0.037854332 0.27245948
-0.082714044 -0.037398309 0.27137688
-0.077384725 -0.036560167 0.27093837
-0.072592892 -0.037074864 0.27091795
-0.067292809 -0.037319247 0.27167353
-0.064211011 -0.038761642 0.27342308
-0.086892359 -0.033821739 0.27360865
-0.081681274 -0.033483967 0.27341935
-0.077490911 -0.033214182 0.27326787
-0.072331049 -0.033047728 0.27349186
-0.068066426 -0.033501908 0.27347618
-0.056012403 -0.05643753 0.27813038
-0.054890905 -0.055926733 0.27900001
-0.056734744 -0.052142549 0.27723259
-0.054890905 -0.05456958 0.27900001
-0.058073767 -0.04748527 0.27693748
-0.06078862 -0.041212007 0.27590001
-0.059069343 -0.042807996 0.27729544
-0.088259794 -0.036040451 0.27500001
-0.062414862 -0.03746267 0.27658972
-0.059867136 -0.039188504 0.27900001
-0.085501112 -0.031659424 0.27672225
-0.083425947 -0.031727418 0.27629408
-0.077415533 -0.030850193 0.27500007
-0.073005103 -0.030749122 0.27500004
-0.066814803 -0.031711791 0.27575991
-0.06372647 -0.032671157 0.27787277
-0.086149469 -0.028891677 0.27868751
-0.077470765 -0.027437357 0.27660003
-0.072592452 -0.027376136 0.27675015
-0.067860693 -0.028077472 0.27721137
-0.064210027 -0.029236047 0.27900001
-0.055607148 -0.051772721 0.28022733
-0.054383572 -0.051782653 0.28069237
-0.05654021 -0.047079399 0.28174356
-0.054608263 -0.045531832 0.28400001
-0.057061616 -0.042290792 0.28207052
-0.054585237 -0.043482643 0.28400001
-0.060986958 -0.036548458 0.28026667
-0.058184136 -0.037534736 0.28205973
-0.06144464 -0.032221794 0.28081629
-0.058861114 -0.032618064 0.28258491
-0.055701669 -0.047609925 0.28500006
-0.054453965 -0.046808936 0.28500006
-0.055378191 -0.04083997 0.28500003
-0.054222908 -0.043266065 0.28500003
-0.056058343 -0.03714703 0.28686488
-0.055644404 -0.035561148 0.29000002
-0.054331712 -0.037370842 0.29008693
