# .PCD v0.7 - Point Cloud Data file format
VERSION 0.7
FIELDS x y z
SIZE 4 4 4
TYPE F F F
COUNT 1 1 1
WIDTH 72
HEIGHT 1
VIEWPOINT 0 0 0 1 0 0 0
POINTS 72
DATA ascii
0.082775168 -0.086567447 0.3190001
0.064966433 -0.090689316 0.324
0.067528911 -0.090487733 0.32253337
0.071901448 -0.0903752 0.32124999
0.09368556 -0.090514205 0.324
0.064966433 -0.089638613 0.324
0.068102807 -0.087802969 0.32326669
0.072464861 -0.08751113 0.32155225
0.077416554 -0.086969323 0.32046151
0.081623293 -0.085964166 0.32010001
0.087543942 -0.086801112 0.32117957
0.091512412 -0.087745115 0.32264519
0.069344349 -0.08429756 0.324
0.072700918 -0.082563952 0.32335851
0.077380538 -0.082526445 0.32248533
0.082493342 -0.082580589 0.32237145
0.087069407 -0.082767159 0.32324079
0.09075506 -0.084152028 0.32333335
0.074028715 -0.079000279 0.324
0.077443004 -0.079122722 0.32376185
0.082244612 -0.079014875 0.324
0.085717753 -0.079131618 0.324
0.059567511 -0.092355572 0.32900003
0.062284961 -0.092386171 0.32752943
0.094968647 -0.090191938 0.32600001
0.059567511 -0.089421555 0.32900006
0.062968925 -0.088048711 0.32760009
0.066045083 -0.086454034 0.32531819
0.094492882 -0.087499343 0.32618186
0.096126415 -0.087458625 0.32729417
0.064172983 -0.084895067 0.32800001
0.067502536 -0.082548365 0.32616666
0.070919074 -0.080766276 0.32514286
0.089263901 -0.081531644 0.32500005
0.092727967 -0.082277127 0.32636589
0.095350459 -0.083037838 0.32757148
0.068580315 -0.078401834 0.32746434
0.072342247 -0.07743936 0.3263104
0.077515535 -0.076883793 0.32561365
0.082824945 -0.077197738 0.32519498
0.087723985 -0.077491336 0.32617995
0.09186355 -0.078829385 0.32753855
0.072918281 -0.073679075 0.32826677
0.077589191 -0.072881222 0.32786438
0.082382046 -0.073147468 0.32776672
0.086669803 -0.073744848 0.32828003
0.059748568 -0.091833666 0.33000001
0.062251408 -0.085942641 0.33050001
0.06391713 -0.082445368 0.33160716
0.065666176 -0.081121258 0.33050004
0.064075194 -0.079055406 0.33337501
0.067165807 -0.077406771 0.33164862
0.089712963 -0.07524623 0.33000001
0.092900418 -0.07664936 0.33077419
0.095522568 -0.076596111 0.33227274
0.069318339 -0.073631018 0.33400005
0.072172791 -0.071721502 0.33343342
0.076128773 -0.070578329 0.3312
0.08377105 -0.070579909 0.33020002
0.088151626 -0.071720429 0.33061111
0.092186406 -0.072841868 0.33221054
0.095523015 -0.074175477 0.333
0.074043885 -0.06924998 0.33333334
0.077650927 -0.068272896 0.33276597
0.082211629 -0.067796454 0.33231032
0.087310523 -0.068527631 0.3333824
0.09111613 -0.069082946 0.33383334
0.064054072 -0.07657133 0.33741671
0.066186205 -0.076082461 0.33571428
0.064676106 -0.073450707 0.33900002
0.067391977 -0.072587289 0.33673584
0.07089074 -0.07059963 0.33525002
