# .PCD v0.7 - Point Cloud Data file format
VERSION 0.7
FIELDS x y z
SIZE 4 4 4
TYPE F F F
COUNT 1 1 1
WIDTH 82
HEIGHT 1
VIEWPOINT 0 0 0 1 0 0 0
POINTS 82
DATA ascii
-0.036178023 -0.073268197 0.29900002
-0.033214934 -0.073257647 0.29899997
-0.048095632 -0.075860605 0.30333331
-0.025791414 -0.075227514 0.30200002
-0.02203772 -0.075825125 0.30316666
-0.019718556 -0.076793708 0.30400002
-0.04706797 -0.072707787 0.30254725
-0.042473834 -0.072423026 0.30091929
-0.03784902 -0.071555085 0.30028003
-0.032100141 -0.071561821 0.30070838
-0.027534597 -0.072441839 0.3019143
-0.023496954 -0.073329553 0.30342424
-0.046533007 -0.068900272 0.30324998
-0.042048693 -0.068601809 0.30308568
-0.037411593 -0.067498915 0.30253702
-0.032669354 -0.067689441 0.30245319
-0.028072879 -0.068322465 0.30326837
-0.036149248 -0.064881459 0.30400002
-0.050115343 -0.076963894 0.30500001
-0.0496208 -0.077458434 0.30500001
-0.017255031 -0.07678543 0.30682054
-0.014698572 -0.076303169 0.30900002
-0.021738725 -0.071763337 0.30554548
-0.017981462 -0.072922014 0.30740672
-0.046619207 -0.066313334 0.30771434
-0.042850632 -0.066313393 0.30553851
-0.03824633 -0.065177307 0.30500004
-0.032229047 -0.065350763 0.30530772
-0.026987908 -0.066258579 0.30568579
-0.022861406 -0.067600839 0.30686298
-0.018703457 -0.069041774 0.30847061
-0.046781253 -0.063886739 0.30895239
-0.042444963 -0.062567033 0.30772412
-0.037383735 -0.062218275 0.30586305
-0.032350939 -0.062419135 0.30684
-0.02750989 -0.062781654 0.30822736
-0.023967592 -0.064194992 0.30900002
-0.041420072 -0.059268214 0.30900002
-0.036707204 -0.058216885 0.30803117
-0.032403961 -0.057866912 0.30843747
-0.028526945 -0.05913461 0.30900002
-0.013468781 -0.080494612 0.31100002
-0.01575144 -0.07948222 0.31
-0.013716373 -0.077444747 0.31160524
-0.015989933 -0.072521336 0.31100002
-0.013903403 -0.073956236 0.31310531
-0.048926309 -0.065910682 0.31
-0.02103471 -0.065634981 0.31008333
-0.017892811 -0.067042135 0.31139469
-0.050596949 -0.060828459 0.31100002
-0.04765771 -0.061530985 0.31062859
-0.044653788 -0.060884193 0.31
-0.02550284 -0.061034989 0.31
-0.022169331 -0.062261432 0.31091535
-0.018518178 -0.063143402 0.31316218
-0.050533876 -0.057978384 0.31345454
-0.047452882 -0.057658423 0.3124482
-0.042629618 -0.05753997 0.31112733
-0.038095646 -0.056717794 0.31048146
-0.031924039 -0.056014035 0.31029406
-0.027209271 -0.057345413 0.31195384
-0.022928558 -0.058341369 0.3132292
-0.019518632 -0.059887819 0.31400001
-0.046369534 -0.054187279 0.31366673
-0.042214889 -0.053629614 0.31269234
-0.037501685 -0.052504238 0.31209224
-0.032546751 -0.052679043 0.31228369
-0.027801808 -0.053207692 0.31364447
-0.024609985 -0.054541901 0.31400001
-0.015031549 -0.07051684 0.31600001
-0.013423712 -0.071621925 0.31653577
-0.01532803 -0.06756749 0.31636363
-0.014262456 -0.068094969 0.31835297
-0.016534936 -0.061832674 0.31622219
-0.014657012 -0.06325525 0.31900001
-0.050864644 -0.056375559 0.31500003
-0.021156011 -0.056562226 0.31533337
-0.018098027 -0.057601053 0.31718001
-0.012809909 -0.066996984 0.32055181
-0.013461066 -0.062262289 0.32100001
-0.01593267 -0.057013538 0.32075006
-0.013568835 -0.058200788 0.32286209
