# .PCD v0.7 - Point Cloud Data file format
VERSION 0.7
FIELDS x y z
SIZE 4 4 4
TYPE F F F
COUNT 1 1 1
WIDTH 164
HEIGHT 1
VIEWPOINT 0 0 0 1 0 0 0
POINTS 164
DATA ascii
-0.052193593 -0.00032432939 0.178
-0.049328767 -0.00055130309 0.17785715
-0.030572914 -0.000181847 0.17900001
-0.028889526 -0.00038501466 0.17900001
-0.051286329 0.0026229296 0.17833348
-0.047670908 0.0031574019 0.177156
-0.042474344 0.003953197 0.17599991
-0.037388653 0.0036342056 0.17601757
-0.03262417 0.0027136113 0.17760855
-0.029249143 0.0017507236 0.17899993
-0.05111929 0.006371364 0.17882973
-0.047365151 0.0067144972 0.1780681
-0.042459574 0.0074098338 0.1777373
-0.037406456 0.0069868513 0.17771435
-0.033942975 0.005934801 0.17841376
-0.057177957 -0.0013782152 0.18284096
-0.054365385 -0.00094741955 0.18100002
-0.026447477 -0.0012116691 0.18227912
-0.024773771 -0.0018576685 0.18400002
-0.056365691 0.001481401 0.18135905
-0.054176942 0.0022602498 0.18016668
-0.03108708 0.004418239 0.18000004
-0.02722495 0.0026898105 0.18218081
-0.024743935 0.00079761789 0.18400002
-0.055633385 0.0058572022 0.1837143
-0.051960174 0.0081003672 0.18131116
-0.047592185 0.0089329202 0.18013157
-0.04066699 0.0089945439 0.18000002
-0.036914676 0.0088027641 0.18028568
-0.032068901 0.0076339035 0.18068357
-0.028735764 0.0070907027 0.18268082
-0.051451359 0.011060846 0.18287185
-0.047329776 0.011818802 0.181943
-0.04246426 0.012550887 0.18155861
-0.037287846 0.012276947 0.18123782
-0.032699656 0.012030468 0.18278751
-0.02922463 0.011076418 0.18396002
-0.046617728 0.016004974 0.18390003
-0.042088084 0.015981758 0.18387501
-0.036993094 0.016029112 0.18371697
-0.034055501 0.016094951 0.18369702
-0.022812704 -0.0050683115 0.18800001
-0.060508721 -0.0039660884 0.18835714
-0.02543566 -0.0028065189 0.18600002
-0.023616958 -0.0025119211 0.1875385
-0.025368201 0.0037389661 0.18561907
-0.024248749 0.0022861725 0.18739438
-0.056117594 0.0073515051 0.1850322
-0.054995231 0.0080611836 0.185
-0.026685288 0.0077829808 0.18606369
-0.024636701 0.0062700072 0.18787502
-0.052031163 0.013655828 0.18525428
-0.048604604 0.014249661 0.18499997
-0.031020185 0.014176217 0.18535291
-0.027536344 0.012447282 0.1875972
-0.051997758 0.017379574 0.18717584
-0.047694303 0.017653316 0.1859156
-0.042659283 0.018361617 0.18584082
-0.037672199 0.018206358 0.18535648
-0.032224119 0.017730219 0.18676732
-0.029072033 0.016848702 0.18835086
-0.050917305 0.020574654 0.18890001
-0.047140639 0.021789076 0.18822227
-0.042470094 0.022258239 0.1875599
-0.037194259 0.022541249 0.18734083
-0.03372281 0.02199191 0.18763895
-0.061872806 -0.0067705978 0.19363052
-0.022753393 -0.0064279819 0.19344826
-0.022052143 -0.0025294109 0.19241378
-0.022763845 0.0024008767 0.19131242
-0.025211923 0.0089337146 0.19000003
-0.023578141 0.0075527569 0.19205055
-0.025691086 0.01351316 0.19078125
-0.02405894 0.012242423 0.19307251
-0.054088056 0.019626923 0.19025001
-0.026900806 0.017760247 0.19159265
-0.024744121 0.017194221 0.19372001
-0.031584628 0.022753393 0.19070642
-0.024956295 0.020249398 0.19400001
-0.061111681 -0.010127969 0.19750002
-0.022937484 -0.010446891 0.19900002
-0.060985938 -0.0084993392 0.19569236
-0.02194117 -0.0076390957 0.19838002
-0.021528691 -0.0022174024 0.19518752
-0.021710256 0.0025777339 0.19629276
-0.022374708 0.0081866039 0.19705002
-0.022767751 0.012478828 0.19728304
-0.023559691 0.017495967 0.19705619
-0.058989506 -0.015092155 0.20400001
-0.025581151 -0.015671011 0.20400001
-0.024712864 -0.015546971 0.20400001
-0.06086915 -0.011286696 0.20118427
-0.059053093 -0.012066047 0.20278087
-0.025581151 -0.014017133 0.20400001
-0.023457378 -0.01216878 0.20276669
-0.060849469 -0.0074634724 0.20133847
-0.059297353 -0.0078480691 0.20297968
-0.021897677 -0.0088979816 0.20022224
-0.061050795 -0.0037696983 0.20388891
-0.059651054 -0.0035811577 0.20400003
-0.021801353 0.0041351416 0.20066667
-0.021806315 0.007484091 0.20121877
-0.02202417 0.01277217 0.20191427
-0.056525104 -0.01593253 0.20590566
-0.05408214 -0.016526533 0.20800005
-0.030731497 -0.017333286 0.20900007
-0.028495055 -0.016416283 0.20793757
-0.02437696 -0.015166136 0.20500001
-0.056868922 -0.012492616 0.20673051
-0.054507907 -0.013435941 0.20884214
-0.027461145 -0.013033643 0.20791112
-0.024077613 -0.014283432 0.20528573
-0.057906944 -0.0080102449 0.2072093
-0.058674429 -0.0037313947 0.20610808
-0.046524927 -0.020470206 0.21133333
-0.042370159 -0.020879786 0.21269438
-0.037604276 -0.020750893 0.2123636
-0.034188282 -0.020507207 0.21140002
-0.051860891 -0.017210271 0.21119101
-0.047512174 -0.017578034 0.21232876
-0.042389877 -0.017896468 0.21335022
-0.037467074 -0.017673487 0.21304274
-0.033066496 -0.017333483 0.21081175
-0.05561693 -0.010598727 0.21000001
-0.052607115 -0.012552052 0.2122986
-0.048444077 -0.013887209 0.21385007
-0.035636067 -0.014444007 0.21400002
-0.032158598 -0.012728551 0.21210985
-0.028952399 -0.011517014 0.21082143
-0.056234606 -0.0068606995 0.21135561
-0.054080427 -0.0084255645 0.21287756
-0.030880591 -0.0094774012 0.21390001
-0.028856179 -0.009239682 0.21217647
-0.056820605 -0.0027552075 0.21184471
-0.054941341 -0.0045547821 0.21400002
-0.0475678 -0.00021740368 0.21400002
-0.056778535 0.00095773471 0.21167737
-0.053447947 0.00077113247 0.21328574
-0.048175033 0.00033778074 0.21400002
-0.045262642 -0.015557335 0.215
-0.042880464 -0.015557336 0.21500002
-0.050887976 -0.010993692 0.215
-0.047068663 -0.012066271 0.21537256
-0.042595301 -0.012506572 0.21607961
-0.037733454 -0.012403462 0.21568097
-0.034140565 -0.010699068 0.21546155
-0.052153837 -0.0073413444 0.21599162
-0.047950793 -0.0079248436 0.21767478
-0.041706249 -0.00863849 0.21893746
-0.037551921 -0.007503008 0.21844342
-0.03303992 -0.0078411466 0.21617284
-0.05553009 -0.0018120733 0.215
-0.052720726 -0.0025903734 0.21683441
-0.049166121 -0.0026508148 0.21805
-0.041280489 -0.0028926772 0.21849999
-0.038151868 -0.0038837269 0.21884206
-0.055856574 0.00086615019 0.21500002
-0.052038174 0.00051804789 0.21544449
-0.049794596 0.00030449801 0.215
-0.045998178 -0.0063868114 0.21999991
-0.042876273 -0.0067447675 0.22000006
-0.047220521 -0.002925742 0.22133331
-0.04347609 -0.0035920006 0.22048895
-0.039091706 -0.0040582283 0.22000001
