# .PCD v0.7 - Point Cloud Data file format
VERSION 0.7
FIELDS x y z
SIZE 4 4 4
TYPE F F F
COUNT 1 1 1
WIDTH 123
HEIGHT 1
VIEWPOINT 0 0 0 1 0 0 0
POINTS 123
DATA ascii
0.094457701 -0.055488296 0.264
0.095884584 -0.055630982 0.264
0.069630057 -0.054204106 0.264
0.072520465 -0.052399747 0.26318184
0.077609055 -0.051588021 0.26077777
0.082505032 -0.05114511 0.26005569
0.087805837 -0.051854163 0.2607258
0.092400886 -0.052334707 0.26243863
0.096092127 -0.054320857 0.26399997
0.074219935 -0.049606588 0.26383334
0.077709116 -0.048022576 0.26304486
0.082386658 -0.047682427 0.26215726
0.087404609 -0.047888596 0.26297736
0.091411881 -0.048879519 0.26369563
0.079903565 -0.044786725 0.264
0.082588695 -0.044669982 0.26399997
0.085967802 -0.044715382 0.264
0.064246275 -0.056470707 0.26833338
0.066426016 -0.055866607 0.26683336
0.064655505 -0.054046813 0.26900005
0.067926705 -0.052636452 0.26715109
0.07124535 -0.050743748 0.26505557
0.094546944 -0.050649688 0.26500002
0.096666381 -0.052125562 0.26516667
0.069154806 -0.048921093 0.26857147
0.072452448 -0.047455389 0.26713967
0.075594403 -0.046148822 0.26576477
0.089229599 -0.045815744 0.26500002
0.092743248 -0.046914618 0.26577362
0.096287854 -0.047232915 0.26704088
0.073346831 -0.043235943 0.26880956
0.077670813 -0.042678352 0.26691175
0.082533911 -0.042349882 0.26625282
0.087578498 -0.042407699 0.26663342
0.092372932 -0.042720854 0.26772591
0.095519736 -0.044617228 0.26900002
0.078628071 -0.03875073 0.26860875
0.082574502 -0.03849778 0.26851106
0.087129787 -0.038801402 0.26850006
0.090576462 -0.039528579 0.26900002
0.063332312 -0.056019746 0.27000004
0.064165629 -0.052088019 0.27140003
0.065878898 -0.051225565 0.27052629
0.064507931 -0.049448825 0.27285716
0.06755998 -0.047435485 0.27212501
0.070774771 -0.045585714 0.27000001
0.068469733 -0.04292582 0.27332729
0.071613647 -0.041921943 0.27124009
0.075730875 -0.0408451 0.2705
0.093736596 -0.040752828 0.27025002
0.096173823 -0.040371235 0.27250001
0.069379762 -0.039819036 0.27400002
0.073090188 -0.037886705 0.27260005
0.077310503 -0.037190475 0.27142429
0.082590938 -0.03619035 0.27033335
0.087661214 -0.036443774 0.27090392
0.092534363 -0.037452418 0.27215588
0.096266024 -0.038224109 0.27362502
0.073999099 -0.034614556 0.27383336
0.078155927 -0.033832889 0.27269229
0.082700588 -0.032901157 0.27277383
0.087299086 -0.032652829 0.27314076
0.091284245 -0.033916947 0.27373686
0.062150162 -0.060662869 0.2761429
0.062231001 -0.057348508 0.27797058
0.062066831 -0.051897299 0.27875611
0.063256226 -0.047520842 0.27796233
0.06559962 -0.04645016 0.27500004
0.064252526 -0.043827653 0.27766669
0.066158548 -0.041899744 0.27618417
0.067934014 -0.037678141 0.27686495
0.071053497 -0.036497116 0.27541384
0.0946033 -0.035059474 0.27500001
0.096876971 -0.036098275 0.27507696
0.10238108 -0.065217853 0.28400001
0.10287995 -0.064411998 0.28400001
0.061137896 -0.055446178 0.28
0.061591901 -0.054008491 0.28
0.06154269 -0.046699259 0.28046668
0.063087642 -0.042586491 0.2821731
0.065112606 -0.04053624 0.28049999
0.064357601 -0.038064234 0.2836875
0.065547533 -0.037063096 0.28116006
0.099117689 -0.066939592 0.28722227
0.10056198 -0.06655284 0.28566673
0.099399351 -0.064450562 0.28724998
0.10128798 -0.06414827 0.2858637
0.062862277 -0.040875491 0.28525001
0.06830442 -0.071540281 0.29231033
0.071476743 -0.072437711 0.29344124
0.093477473 -0.072255008 0.29358068
0.096190333 -0.071169272 0.29212499
0.068171099 -0.068216965 0.29279071
0.070471294 -0.068017699 0.2938889
0.094504282 -0.069004521 0.29374999
0.097273402 -0.067588151 0.29257408
0.098899648 -0.063999705 0.29330003
0.074697182 -0.075397141 0.29500002
0.07795278 -0.076075353 0.29640001
0.082561523 -0.07634218 0.29681483
0.086434908 -0.075789854 0.296
0.073893011 -0.072307132 0.29546157
0.077500634 -0.072608322 0.2969566
0.082420923 -0.072604805 0.29744184
0.0874715 -0.072622731 0.29670373
0.09141013 -0.072100744 0.29543242
0.073089801 -0.067613728 0.29627085
0.077558063 -0.067632921 0.29839709
0.082563683 -0.068757363 0.29887095
0.087856464 -0.06836497 0.29857144
0.092435546 -0.067346022 0.29729548
0.095882364 -0.066255592 0.29564708
0.074240468 -0.064832188 0.29700002
0.077326082 -0.064137541 0.29900002
0.089042403 -0.064299136 0.29900002
0.092332549 -0.063408867 0.29845238
0.096595638 -0.063755184 0.29604763
0.079368286 -0.065487057 0.30000001
0.082850121 -0.066485539 0.30000013
0.08700531 -0.066265337 0.30000004
0.079416931 -0.064125039 0.30000001
0.082773335 -0.063930474 0.3000001
0.087538593 -0.063757509 0.3000001
