# .PCD v0.7 - Point Cloud Data file format
VERSION 0.7
FIELDS x y z
SIZE 4 4 4
TYPE F F F
COUNT 1 1 1
WIDTH 167
HEIGHT 1
VIEWPOINT 0 0 0 1 0 0 0
POINTS 167
DATA ascii
-0.067031644 0.0073579452 0.15900002
-0.067645036 0.0075038215 0.16025001
-0.050215073 0.0099382671 0.164
-0.049443915 0.0096191661 0.16400002
-0.070025951 0.011622413 0.164
-0.067315638 0.013065823 0.16303538
-0.062691249 0.013314699 0.16195974
-0.057380993 0.013124481 0.16148861
-0.052944839 0.012489837 0.16309096
-0.04955028 0.010204185 0.164
-0.066129632 0.015895842 0.16391307
-0.062249102 0.016833939 0.16372295
-0.057507142 0.016511526 0.16310769
-0.054309707 0.015687201 0.16386668
-0.075175166 0.009145163 0.16900001
-0.0727937 0.0092483805 0.16703035
-0.069650322 0.0091962488 0.16500001
-0.047169995 0.0086928289 0.16699123
-0.071486622 0.011738046 0.16583098
-0.069293603 0.013476877 0.16500002
-0.051044587 0.013553939 0.16530162
-0.048151776 0.012288746 0.16686533
-0.070727922 0.016527621 0.16740911
-0.067499168 0.017825084 0.16602917
-0.062700592 0.019128306 0.16509996
-0.057168141 0.018774591 0.16519231
-0.052537262 0.017598793 0.16700913
-0.049229585 0.016476013 0.16838181
-0.067479089 0.021561692 0.16864699
-0.062668487 0.02225126 0.16749002
-0.057684049 0.022263197 0.16722378
-0.053316306 0.021201015 0.16835238
-0.060788851 0.025531858 0.16900001
-0.05874978 0.025772028 0.16900003
-0.04455442 0.0047766753 0.17385715
-0.076175839 0.0080391187 0.17108697
-0.074955747 0.0070352461 0.171
-0.045627631 0.0079546208 0.17033337
-0.044440895 0.0073467484 0.17205627
-0.046112124 0.012794496 0.17117019
-0.044746671 0.012028405 0.17303769
-0.05026051 0.019673843 0.17
-0.047365837 0.017552679 0.17169751
-0.044954069 0.016017625 0.17400001
-0.067812532 0.023806835 0.170082
-0.063117459 0.024832373 0.17
-0.055938836 0.024672238 0.17
-0.052131116 0.023289919 0.1710144
-0.04868855 0.022028008 0.17249569
-0.066956021 0.027197463 0.17199022
-0.062581509 0.027543534 0.17083082
-0.057389677 0.027768474 0.17095524
-0.05281892 0.027041271 0.17245325
-0.049302839 0.026025154 0.17383336
-0.066255048 0.030293522 0.17400001
-0.062146932 0.031075872 0.17330299
-0.057517398 0.031562075 0.17347202
-0.053765133 0.030323213 0.17383336
-0.080248684 0.0040350598 0.17820001
-0.0792742 0.0043139583 0.17834999
-0.045584016 0.0038316518 0.17700002
-0.044126023 0.0035794093 0.17685108
-0.080168739 0.0059188632 0.177
-0.079178579 0.0059014601 0.17791176
-0.043889806 0.0078326948 0.17669739
-0.043868907 0.012276934 0.17713897
-0.045689903 0.018775867 0.17586054
-0.044498291 0.016983792 0.17755933
-0.046669569 0.022807954 0.17685628
-0.044675145 0.021569047 0.17899998
-0.069179803 0.029578187 0.17533335
-0.051029868 0.029010287 0.1751177
-0.04797649 0.027607998 0.17675795
-0.080393076 -0.0007463267 0.18400002
-0.079659641 -0.00058472226 0.18400002
-0.045474067 -0.0010790268 0.18350002
-0.044814043 -0.00058083463 0.18283336
-0.080397993 0.0015990466 0.18148151
-0.07930395 0.0026323907 0.1824348
-0.045342989 0.0015262105 0.18100002
-0.04425361 0.0023522542 0.18207143
-0.080057442 0.0090618236 0.18400002
-0.079146057 0.0070033846 0.18279628
-0.043294169 0.0073678442 0.18127273
-0.043025553 0.012683117 0.18234178
-0.043464206 0.01755213 0.1820796
-0.045163814 0.024394697 0.18014289
-0.044124901 0.022268016 0.18258512
-0.045920532 0.027765362 0.18125004
-0.044446688 0.027334619 0.18327865
-0.077904366 -0.0052129589 0.18833335
-0.047647383 -0.0053360555 0.18900004
-0.080108382 -0.0014624043 0.18588889
-0.079039499 -0.0022290631 0.18777423
-0.046462923 -0.0028972847 0.18680647
-0.044496339 -0.00078787887 0.185
-0.080022857 0.00026342619 0.186
-0.07933671 0.002431161 0.18711586
-0.046596117 0.00011202579 0.185
-0.044432059 0.0022760825 0.18499999
-0.079272382 0.007267361 0.18733332
-0.079002395 0.01058872 0.18741179
-0.04294432 0.013695385 0.18635716
-0.04244056 0.018000431 0.18696001
-0.042850509 0.022622107 0.18683337
-0.076506071 -0.0061648577 0.19250004
-0.074656986 -0.0069601526 0.19400001
-0.052097552 -0.0070107868 0.19303332
-0.049310319 -0.0061243502 0.1905625
-0.077349797 -0.0026850302 0.1919806
-0.051315483 -0.003846393 0.19316667
-0.049636818 -0.0043075192 0.19033335
-0.078451604 0.0023485611 0.1920668
-0.080049157 0.0084329667 0.19140001
-0.078875586 0.0072776526 0.19239004
-0.08000613 0.010955052 0.19100001
-0.078778267 0.011542685 0.19210419
-0.04272088 0.018650929 0.19000003
-0.066863507 -0.010142611 0.19675003
-0.06263987 -0.010177488 0.19700001
-0.075251795 -0.0057711676 0.19530001
-0.072245605 -0.0070644016 0.19673185
-0.067642882 -0.007611359 0.1982398
-0.062395822 -0.0077509671 0.19809593
-0.057700008 -0.0075548822 0.19723959
-0.054217122 -0.0059753112 0.19525
-0.07597255 -0.0022561199 0.19599989
-0.072976083 -0.002952494 0.19834045
-0.068690419 -0.0045728572 0.19900002
-0.056006677 -0.0034310997 0.19851723
-0.053259876 -0.0023957645 0.19655731
-0.076726682 0.0024253398 0.19740899
-0.073177636 0.0012191628 0.198875
-0.053927001 0.00069718639 0.19836845
-0.077871107 0.0077683609 0.1976749
-0.070127763 0.0098005589 0.19900002
-0.069321088 0.009639225 0.19900002
-0.062636174 0.0082494188 0.19877779
-0.077582337 0.011627099 0.19697849
-0.072399579 0.011782163 0.19851568
-0.069321088 0.011091233 0.19900002
-0.065708473 -0.0055308025 0.20000002
-0.0636971 -0.0055269422 0.20000003
-0.071179211 -0.0015489332 0.20008504
-0.06740126 -0.0024447467 0.20087184
-0.062595248 -0.0026284398 0.20136164
-0.058383126 -0.0023603141 0.20082927
-0.075350299 0.0041105188 0.20011768
-0.07261052 0.0025375767 0.20098452
-0.06808164 0.0018410842 0.20295931
-0.062241286 0.0013732032 0.20336716
-0.058010213 0.001967876 0.2025061
-0.05491424 0.0020668488 0.2
-0.075915091 0.0076365173 0.20058666
-0.073000871 0.0073119574 0.20254542
-0.067464322 0.0072223609 0.20327586
-0.063144602 0.0075053535 0.20048004
-0.058989506 0.0055262018 0.20400003
-0.076283239 0.010737338 0.20000003
-0.073506869 0.010606483 0.20000003
-0.066813126 0.003716348 0.20569228
-0.062854737 0.0038285847 0.20511761
-0.059611067 0.0046114991 0.20500001
-0.071152553 0.0072781034 0.20521428
-0.067840874 0.0061829975 0.20536061
-0.062702186 0.0059816879 0.20539215
-0.059777267 0.0051100953 0.20500001
