# .PCD v0.7 - Point Cloud Data file format
VERSION 0.7
FIELDS x y z
SIZE 4 4 4
TYPE F F F
COUNT 1 1 1
WIDTH 141
HEIGHT 1
VIEWPOINT 0 0 0 1 0 0 0
POINTS 141
DATA ascii
-0.0062958524 -0.046323273 0.25400004
-0.0023358178 -0.045821503 0.25300014
0.0025482841 -0.04566608 0.25214285
0.007370559 -0.045997001 0.25300011
0.011318154 -0.046403766 0.25400004
-0.0055339332 -0.044284619 0.25399998
-0.002168824 -0.043125577 0.25352392
0.0024877624 -0.042642009 0.25343901
0.0070568272 -0.043304577 0.2535333
0.010500696 -0.044463091 0.25400001
-0.015259852 -0.050657779 0.259
-0.016081505 -0.048667561 0.25899997
-0.012351833 -0.047566958 0.25773609
-0.0086455112 -0.046547025 0.25508702
0.013896644 -0.046742365 0.25527281
0.017239427 -0.047396138 0.25762686
-0.010921515 -0.043328021 0.25807998
-0.0075871353 -0.042374905 0.25668961
-0.0031160649 -0.040815368 0.25531256
0.0023733582 -0.040461034 0.25500005
0.0081486162 -0.041104041 0.25553492
0.012534055 -0.042460505 0.25643426
0.016092064 -0.043345779 0.25823331
-0.01064034 -0.039738938 0.259
-0.0070539513 -0.03876714 0.25853652
-0.0021389434 -0.037557721 0.25761607
0.0025789137 -0.037415057 0.25699028
0.0074760122 -0.037477188 0.2576251
0.011987438 -0.038486961 0.25853482
-0.00072938838 -0.03411153 0.25900003
0.0025126683 -0.033943545 0.25899994
0.0062978687 -0.034139529 0.25900003
-0.016864553 -0.050572321 0.26000002
-0.014686405 -0.050853372 0.26000002
0.019271892 -0.051262382 0.26100001
0.022001246 -0.052010536 0.26240429
-0.016603803 -0.046172686 0.26055562
-0.014414769 -0.045788135 0.2601667
0.019225726 -0.04643916 0.26007146
0.021352012 -0.047621015 0.26170176
-0.01650928 -0.042462595 0.26202181
-0.013319408 -0.042365253 0.26125428
0.018223299 -0.042168755 0.26159424
0.020849368 -0.044388529 0.26333332
-0.016409028 -0.039700065 0.26346153
-0.011993096 -0.038321067 0.26256526
-0.0077940831 -0.036636211 0.2607308
-0.0040415842 -0.035518508 0.26000002
0.0093856445 -0.035423655 0.26000002
0.013059423 -0.0366024 0.26046818
0.016730011 -0.037768815 0.26235825
-0.010417689 -0.034941282 0.264
-0.0072757574 -0.033395026 0.2631819
-0.0026875883 -0.032192107 0.26086906
0.0026612796 -0.031666398 0.26067129
0.0077062068 -0.032183815 0.26130956
0.012218975 -0.032789875 0.26241019
0.016308846 -0.034146119 0.26367998
-0.0054236231 -0.029519154 0.264
-0.0017143341 -0.028903294 0.26335481
0.0025741654 -0.028218808 0.26320377
0.0072417911 -0.028487714 0.26344451
0.010613061 -0.029238036 0.26385713
-0.018029885 -0.055230699 0.26900002
-0.018029885 -0.054794531 0.26900002
0.0216012 -0.041776497 0.26702222
-0.01659433 -0.037169341 0.26740915
-0.013582818 -0.036433771 0.26633337
0.019277697 -0.037157603 0.26643479
0.021164706 -0.038831197 0.26773918
-0.016562769 -0.03421523 0.26900005
-0.012473208 -0.0327188 0.26752773
-0.0083436919 -0.031119432 0.26531428
0.013914323 -0.030969335 0.26554999
0.017229125 -0.032277171 0.26749998
-0.010895333 -0.028407967 0.26850006
-0.0074633076 -0.027392546 0.26710957
-0.0028974132 -0.026926966 0.26567307
0.0023903581 -0.026086316 0.26537031
0.0076092477 -0.026383435 0.26567566
0.012493291 -0.02731506 0.26687652
0.015916543 -0.028836133 0.26858827
0.019990953 -0.03529761 0.27000001
0.020894935 -0.036340427 0.27036363
-0.016729355 -0.03206417 0.27043751
-0.014102063 -0.030755525 0.27000001
0.019233165 -0.03205952 0.27047622
0.020625656 -0.034799427 0.27066669
-0.016328476 -0.027847929 0.27289581
-0.012903526 -0.027090603 0.271678
-0.0097788712 -0.0256662 0.27000001
0.017958822 -0.027247109 0.27148619
-0.016739808 -0.058716439 0.27900004
0.02259065 -0.035059474 0.27500004
0.021887952 -0.033173468 0.27739999
-0.015811825 -0.066138841 0.28400001
-0.013532392 -0.066092797 0.28399998
0.016870156 -0.066725738 0.28361118
0.020422189 -0.065673068 0.28200001
-0.016417041 -0.062505528 0.28202704
-0.013604276 -0.062627077 0.28360426
0.018182253 -0.062950298 0.28290194
0.021217989 -0.062688917 0.28194442
-0.015717415 -0.058101602 0.28110006
-0.014349658 -0.058359168 0.28328571
0.018985957 -0.059043922 0.28310001
0.020758048 -0.059552666 0.28160003
0.022093376 -0.032518879 0.28
-0.0018714799 -0.070325494 0.28858337
0.0025396103 -0.070684969 0.28888002
0.0068170698 -0.070574 0.28814292
0.010913434 -0.070217095 0.28750002
-0.011159723 -0.066776074 0.28500006
-0.0075432924 -0.067134991 0.28640276
-0.0029272349 -0.068008646 0.28873751
0.0027556291 -0.068291381 0.28899983
0.0076826992 -0.067645021 0.28856888
0.012113067 -0.067324489 0.28675717
-0.011276873 -0.062304638 0.28580001
-0.0082503948 -0.062930718 0.28806344
-0.0048438255 -0.064960264 0.289
0.0083621489 -0.064363852 0.28900003
0.01279727 -0.062885836 0.28766665
0.016187906 -0.061730139 0.28567863
-0.011943454 -0.057788614 0.28705555
-0.0092604747 -0.058032997 0.28895241
0.014039223 -0.058769446 0.2886667
0.01647363 -0.058816791 0.28672227
-0.0019804856 -0.065733626 0.28999999
0.0023690548 -0.065890364 0.28999999
0.0055430434 -0.065596476 0.28999999
-0.0059420723 -0.061741285 0.29020831
-0.0024029198 -0.062302802 0.29156962
0.0023228577 -0.062405422 0.29181165
0.0071372315 -0.062086433 0.29095465
0.011083403 -0.060785651 0.29010001
-0.0069163828 -0.057659462 0.2912778
-0.002497582 -0.05780533 0.2934649
0.0024699031 -0.058045596 0.29389992
0.0075365216 -0.058186416 0.29272881
0.011598207 -0.058407452 0.29089648
