# .PCD v0.7 - Point Cloud Data file format
VERSION 0.7
FIELDS x y z
SIZE 4 4 4
TYPE F F F
COUNT 1 1 1
WIDTH 75
HEIGHT 1
VIEWPOINT 0 0 0 1 0 0 0
POINTS 75
DATA ascii
-0.057040818 -0.085624062 0.31883335
-0.082311124 -0.082351975 0.31788233
-0.077130765 -0.081004649 0.31505889
-0.072571814 -0.081019565 0.31500006
-0.067297973 -0.081246749 0.31522223
-0.06233367 -0.082329057 0.31665447
-0.058983594 -0.083159797 0.31825003
-0.081634805 -0.077909619 0.31836119
-0.077377848 -0.077389039 0.31648389
-0.072654046 -0.077560239 0.3165507
-0.067649283 -0.077597536 0.31702814
-0.062988274 -0.07816536 0.31811678
-0.059657115 -0.079720795 0.31900001
-0.080864064 -0.074807003 0.31900001
-0.077302285 -0.073564731 0.31896788
-0.072497509 -0.073798329 0.31896788
-0.068126962 -0.074160442 0.31900007
-0.064570919 -0.074806996 0.31900001
-0.05563521 -0.086116672 0.32066667
-0.053951096 -0.086733103 0.32296157
-0.08526846 -0.082305603 0.32000002
-0.084230736 -0.080230139 0.32000002
-0.056824591 -0.082283653 0.32117024
-0.054427251 -0.082954995 0.32327271
-0.08371187 -0.077578172 0.32000002
-0.061697956 -0.075892724 0.32020006
-0.057795826 -0.077675514 0.32136503
-0.054535519 -0.079033278 0.32360002
-0.081453994 -0.072194956 0.32295832
-0.077285707 -0.071148641 0.32100001
-0.072587974 -0.07127136 0.32020587
-0.067522287 -0.071937025 0.3206481
-0.06271296 -0.072441772 0.32198498
-0.058936622 -0.073289588 0.32317239
-0.081012428 -0.068696253 0.32394731
-0.077234738 -0.067311913 0.32291493
-0.072377503 -0.067243055 0.32171434
-0.067620315 -0.067357816 0.32269359
-0.063319385 -0.068390161 0.32359377
-0.076739788 -0.063730568 0.32399994
-0.072340645 -0.062870845 0.32332501
-0.068442188 -0.06360811 0.32372218
-0.051544845 -0.087183155 0.32661542
-0.052377723 -0.082669847 0.32682228
-0.05614426 -0.076426178 0.32590914
-0.053767812 -0.077575088 0.32747623
-0.085574903 -0.071975 0.32622224
-0.083912544 -0.072569855 0.32520002
-0.056733433 -0.072330594 0.32619563
-0.053968638 -0.073669963 0.3282778
-0.085477948 -0.068224438 0.3265
-0.082741536 -0.067156464 0.32530552
-0.062032286 -0.066743024 0.32634687
-0.058755636 -0.068379365 0.3272942
-0.085873522 -0.063440435 0.32881823
-0.082248122 -0.062705532 0.32748979
-0.07763762 -0.061705306 0.32608333
-0.071828596 -0.060848247 0.32625005
-0.066840723 -0.062172797 0.32665989
-0.062644474 -0.062830448 0.32823533
-0.059215602 -0.064704716 0.32900006
-0.080376066 -0.059370141 0.32900006
-0.077392876 -0.059149154 0.32850006
-0.051413998 -0.081533402 0.33000001
-0.052196104 -0.07765992 0.33046156
-0.055681385 -0.070622586 0.33040002
-0.053711332 -0.071993448 0.3308
-0.056495961 -0.067284197 0.33124492
-0.054494448 -0.068646722 0.33330005
-0.085525259 -0.061869271 0.33000001
-0.083652481 -0.060799114 0.33000001
-0.060529441 -0.061639953 0.33000001
-0.057846844 -0.062765002 0.33204547
-0.055044722 -0.0657942 0.33500001
-0.053947818 -0.067296848 0.3355
