# .PCD v0.7 - Point Cloud Data file format
VERSION 0.7
FIELDS x y z
SIZE 4 4 4
TYPE F F F
COUNT 1 1 1
WIDTH 73
HEIGHT 1
VIEWPOINT 0 0 0 1 0 0 0
POINTS 73
DATA ascii
-0.085589379 -0.080755532 0.31233338
-0.082341775 -0.080922492 0.31199995
-0.078457251 -0.08043766 0.31200001
-0.072529569 -0.0804087 0.31262499
-0.067243107 -0.08081568 0.31311116
-0.062284403 -0.081448868 0.31303129
-0.058081456 -0.081542827 0.31378579
-0.085980736 -0.077545442 0.31266671
-0.082509995 -0.077460982 0.31249994
-0.077536397 -0.077223904 0.31257755
-0.072609693 -0.077351972 0.31301421
-0.067867838 -0.077972196 0.31361815
-0.062471617 -0.07790532 0.31374133
-0.059078451 -0.078725822 0.31400004
-0.085855499 -0.073900186 0.31336361
-0.082717098 -0.074172437 0.31363645
-0.077978514 -0.07420142 0.31378579
-0.072686911 -0.074143618 0.31400001
-0.055912092 -0.08170896 0.31538466
-0.053225871 -0.082667142 0.31667396
-0.06722305 -0.07577014 0.31500003
-0.062252197 -0.075633407 0.31500006
-0.057274844 -0.07715185 0.31538591
-0.053081352 -0.077796198 0.31747696
-0.085468411 -0.073358215 0.31500003
-0.081968702 -0.071879931 0.31558973
-0.077620246 -0.071872905 0.31545645
-0.072721936 -0.072060905 0.31552637
-0.067692138 -0.072442628 0.31603137
-0.062424231 -0.072390944 0.31625381
-0.057681773 -0.073313229 0.31829321
-0.053649142 -0.07397145 0.31900004
-0.085001998 -0.068600088 0.31900001
-0.081973404 -0.068413019 0.31839478
-0.077659443 -0.067691289 0.31779173
-0.072430864 -0.068108745 0.3173922
-0.067749493 -0.068255641 0.31838781
-0.062809549 -0.068931296 0.3185938
-0.059657115 -0.069634572 0.31900001
-0.078277849 -0.064979389 0.31900001
-0.0510883 -0.07581979 0.32000002
-0.086306192 -0.071409449 0.32000002
-0.057076801 -0.070831731 0.32010531
-0.052767891 -0.072060548 0.32122222
-0.085308321 -0.066604838 0.32042858
-0.082674146 -0.066026255 0.32000008
-0.076524325 -0.065613672 0.32015383
-0.072919495 -0.065831661 0.32000005
-0.067131802 -0.065749124 0.32000008
-0.062286597 -0.066385299 0.320425
-0.057624873 -0.067236029 0.32111412
-0.054073077 -0.0678057 0.32331252
-0.085541777 -0.062373418 0.32233334
-0.082117841 -0.062393662 0.32145607
-0.077266514 -0.062348876 0.32117549
-0.072444633 -0.062352739 0.32120332
-0.067649901 -0.062494259 0.32181957
-0.062867798 -0.062654786 0.32262078
-0.057586696 -0.062676392 0.3227827
-0.054708261 -0.063686334 0.324
-0.085589997 -0.058612406 0.32383332
-0.082308225 -0.057859048 0.32362011
-0.077603333 -0.058562074 0.32346877
-0.073086962 -0.059443951 0.32349998
-0.05182068 -0.070944309 0.32500002
-0.05299329 -0.067097992 0.32623079
-0.061042681 -0.060931858 0.32500002
-0.057440594 -0.060719222 0.32538468
-0.054191042 -0.062807597 0.32617396
-0.086602323 -0.056642111 0.32533336
-0.072157972 -0.057527259 0.32603922
-0.067303896 -0.057683721 0.32614759
-0.05479065 -0.05971618 0.32700002
