# .PCD v0.7 - Point Cloud Data file format
VERSION 0.7
FIELDS x y z
SIZE 4 4 4
TYPE F F F
COUNT 1 1 1
WIDTH 147
HEIGHT 1
VIEWPOINT 0 0 0 1 0 0 0
POINTS 147
DATA ascii
0.073502913 -0.025779022 0.21400002
0.078823432 -0.025547694 0.21400002
0.082778327 -0.025674192 0.21395241
0.087932423 -0.025550205 0.21300004
0.091720402 -0.025522504 0.21300004
0.078511134 -0.024044067 0.21400009
0.082299903 -0.023613557 0.21397784
0.087417819 -0.023435805 0.21342042
0.092377335 -0.023314776 0.21350516
0.096972309 -0.023783745 0.21364409
0.068489529 -0.025852669 0.21626672
0.071820699 -0.026151197 0.21508001
0.075967103 -0.025667075 0.215
0.098888323 -0.025667075 0.215
0.06846562 -0.022961246 0.2170108
0.072499938 -0.022662129 0.21567599
0.07713031 -0.022220815 0.21527621
0.082674697 -0.021078065 0.21500008
0.087663151 -0.020909691 0.21526092
0.09252616 -0.02084752 0.21500006
0.09758427 -0.021423118 0.21535592
0.10028222 -0.022206295 0.21599999
0.069342762 -0.018299801 0.21877776
0.072605863 -0.017645556 0.21813743
0.077522337 -0.017698471 0.21778293
0.082297213 -0.017523143 0.21715155
0.087493993 -0.017601999 0.21757855
0.092550926 -0.017506149 0.21745524
0.097319789 -0.01756523 0.21771547
0.079511024 -0.014692708 0.21900001
0.082405061 -0.0143672 0.21899998
0.08776705 -0.014670512 0.21900004
0.092679232 -0.014751889 0.21900003
0.096437335 -0.014663115 0.21900003
0.067286752 -0.030406076 0.22385716
0.067842543 -0.028116634 0.22257499
0.10165542 -0.028021876 0.22050004
0.067420989 -0.02179848 0.22223686
0.068279319 -0.017171264 0.22165078
0.070510216 -0.015294875 0.22000001
0.077430569 -0.015205695 0.22000001
0.099761173 -0.015205695 0.22000001
0.10055415 -0.016247422 0.22028573
0.069119595 -0.01335135 0.22279546
0.072453029 -0.012544343 0.22114733
0.077488072 -0.012622255 0.22093967
0.08247143 -0.01200211 0.22089259
0.087514244 -0.012255969 0.22073834
0.092566095 -0.012406752 0.22078516
0.097258449 -0.012394949 0.22114119
0.10011789 -0.014848976 0.22000001
0.072706424 -0.0089521874 0.22352633
0.07746388 -0.0084346533 0.22313632
0.082634158 -0.0082683219 0.22276077
0.087673262 -0.0083848312 0.22279073
0.092423104 -0.0082407501 0.22263341
0.096998505 -0.0088053355 0.22320002
0.067203626 -0.032062788 0.22720005
0.10182928 -0.032027975 0.22876096
0.066864707 -0.02830288 0.2266842
0.10168281 -0.028850893 0.22816004
0.067597516 -0.017170222 0.22700003
0.068138123 -0.011573397 0.22613727
0.070288591 -0.010078887 0.22500001
0.10314856 -0.011796519 0.22883335
0.068331286 -0.0074058794 0.22764193
0.072294019 -0.0067802705 0.22624253
0.077100329 -0.0061592702 0.22547495
0.082091875 -0.0058178697 0.22563887
0.08742287 -0.0059018233 0.22551604
0.091953747 -0.0057474426 0.22554545
0.097998813 -0.0064267358 0.22700009
0.10164125 -0.0069806855 0.22792867
0.068476029 -0.0039556385 0.22863638
0.066776477 -0.036409028 0.23400001
0.10190213 -0.036149085 0.23239133
0.066546611 -0.032886058 0.22999999
0.10091355 -0.032768391 0.23131907
0.10105635 -0.02947847 0.23122223
0.067317486 -0.021546451 0.23223533
0.067450494 -0.017700402 0.23123807
0.067480206 -0.014467761 0.23100001
0.10384279 -0.010891873 0.23027274
0.10367055 -0.0090594953 0.2306
0.06859085 -0.040158033 0.23900001
0.10184433 -0.040545564 0.23900001
0.067163236 -0.038010523 0.23694348
0.10128042 -0.037815854 0.23701967
0.066447541 -0.032417525 0.23626317
0.10073171 -0.032452978 0.2363929
0.067138575 -0.027335228 0.23588005
0.10084746 -0.029959913 0.23500001
0.06699279 -0.02233904 0.23530774
0.067310728 -0.018870417 0.23700002
0.06731914 -0.012596352 0.23621055
0.06910266 -0.045745768 0.24400002
0.06790372 -0.042527933 0.24358696
0.071135253 -0.040835507 0.24283336
0.10095065 -0.041933961 0.24230005
0.06991557 -0.039936908 0.24000001
0.071514234 -0.03845863 0.24214286
0.10050479 -0.038461089 0.2405
0.067124493 -0.029129148 0.24400002
0.067580685 -0.018144626 0.24000001
0.069253445 -0.04540357 0.245
0.072204031 -0.045793686 0.24557139
0.077831782 -0.045344789 0.24672225
0.082436979 -0.04565461 0.24707414
0.087004773 -0.045265201 0.24692859
0.092571929 -0.045903429 0.24650007
0.097317182 -0.045812577 0.24579996
0.10076904 -0.045138735 0.245
0.068635501 -0.044255946 0.24499999
0.072931841 -0.043140713 0.24610007
0.07760942 -0.042636842 0.24753673
0.082452975 -0.042402446 0.24774997
0.087544724 -0.042455342 0.24745698
0.092602871 -0.042554811 0.24703801
0.097776353 -0.04260717 0.24584232
0.10090146 -0.042887621 0.24499999
0.07389725 -0.038506199 0.2460556
0.076919191 -0.038277943 0.24878322
0.082406625 -0.039617706 0.24900004
0.088115774 -0.039240099 0.24889292
0.092473947 -0.038584404 0.24867782
0.097710453 -0.038184009 0.24781999
0.10141968 -0.037088182 0.24729408
0.066821918 -0.030380143 0.24580002
0.07891652 -0.03319823 0.24900003
0.081419706 -0.033157852 0.24900001
0.10261071 -0.033493143 0.24850002
0.067070916 -0.027569843 0.2462
0.067069307 -0.02342925 0.24683332
0.06710843 -0.018978385 0.24866669
0.078855686 -0.036704101 0.25042307
0.082467005 -0.037248358 0.25038752
0.087258279 -0.037229732 0.25060871
0.092335515 -0.03627174 0.25075608
0.097047314 -0.035900857 0.25027996
0.10079873 -0.035520509 0.25
0.078273185 -0.034398276 0.25031251
0.082800493 -0.034094144 0.25085366
0.08766976 -0.033446524 0.25250006
0.092297427 -0.033525687 0.25207692
0.097521916 -0.033609334 0.25198713
0.10165475 -0.03314035 0.250907
0.067017704 -0.018361975 0.25025001
