# .PCD v0.7 - Point Cloud Data file format
VERSION 0.7
FIELDS x y z
SIZE 4 4 4
TYPE F F F
COUNT 1 1 1
WIDTH 251
HEIGHT 1
VIEWPOINT 0 0 0 1 0 0 0
POINTS 251
DATA ascii
0.0029451586 0.018893123 0.14772224
0.0070725996 0.01844224 0.14803453
0.0030494146 0.021400224 0.14807826
0.0064473851 0.02131667 0.1487124
-0.0052030236 0.014576044 0.15400001
-0.0045787655 0.014576044 0.15400001
0.014677311 0.014977559 0.15300001
0.016774399 0.014430499 0.15337503
-0.0053908732 0.016410278 0.15391174
-0.0024000709 0.017539384 0.15174593
0.00054349535 0.018401634 0.15000001
0.0093920371 0.018437531 0.15072553
0.012570747 0.017612601 0.15186557
0.016390577 0.01664407 0.15358587
-0.0013103714 0.022361038 0.15132585
0.0022494723 0.023688726 0.15042993
0.0080111511 0.023082191 0.15082406
0.011983604 0.021800175 0.15323484
-0.00091698812 0.026694344 0.15359992
0.0026869748 0.027111776 0.15264241
0.0072172368 0.027120207 0.15260233
0.01015373 0.02602078 0.15400003
0.0048267264 0.030140882 0.15400001
0.0058463486 0.030151285 0.15400003
-0.0059436089 0.00955653 0.15660001
0.026123907 0.0098930821 0.15900001
-0.0074345344 0.013398604 0.1573725
-0.0045992094 0.013225532 0.15640001
0.014994835 0.014670693 0.155
0.018993763 0.013862336 0.15502506
0.02270815 0.013158984 0.1569639
0.02557018 0.011864118 0.15857141
-0.0071727741 0.017355716 0.15720777
-0.0043004644 0.018815666 0.15507691
0.012732911 0.015675992 0.155
0.018366378 0.017928824 0.15609318
0.021770608 0.017058566 0.15767397
-0.0057174084 0.022245148 0.15758824
-0.0042590206 0.022829741 0.15614522
0.01334856 0.023740798 0.15508106
0.017116861 0.022256989 0.15745403
0.020409105 0.02059222 0.15900002
-0.0055008582 0.025619524 0.15900001
-0.0027044006 0.02765996 0.1570667
0.0017643408 0.029245844 0.15516131
0.0085838353 0.028978862 0.15528575
0.01255205 0.027492061 0.15670098
0.01571949 0.027030861 0.15872411
-0.00088325114 0.032260198 0.1568182
0.0026600638 0.032361399 0.15676305
0.0075772149 0.032608587 0.15677312
0.011524456 0.03135819 0.1584546
-0.00060220947 0.036128227 0.15891665
0.0029519745 0.036177415 0.1586957
0.0069385935 0.036464639 0.1585253
-0.011344803 0.009563705 0.16324005
-0.0086278245 0.0096669765 0.16253848
0.028405122 0.0091346065 0.16100001
0.030392779 0.0083644269 0.16390002
-0.011153945 0.012157955 0.16240242
-0.0081141582 0.011426897 0.16192958
-0.0039493144 0.013675424 0.16239396
0.024126273 0.010733599 0.16000001
0.028032979 0.012717044 0.16103269
0.030508883 0.012374599 0.16292861
-0.010901877 0.016646698 0.16347374
-0.0086939372 0.018404391 0.16141669
-0.0032763961 0.0156471 0.16254544
0.023711091 0.018496023 0.16048481
0.02699223 0.017173523 0.16223572
-0.007533533 0.022479422 0.16082539
0.019469159 0.023041548 0.16051428
0.0224493 0.022467507 0.16171186
0.025603496 0.021399375 0.16353576
-0.0063445712 0.02692784 0.16228263
-0.0040977714 0.029016091 0.16036846
0.017787382 0.027653424 0.16146249
0.021413781 0.026630752 0.16352381
-0.0052097421 0.031485856 0.16333334
-0.003754237 0.032578226 0.16215588
0.00083916058 0.033897173 0.16000001
0.013077499 0.033135816 0.16116929
0.016891379 0.032078829 0.1628682
-0.0025024186 0.03712238 0.16269861
0.002185402 0.038251419 0.16052827
0.0081245806 0.038379539 0.16034773
0.01174905 0.037048388 0.16196874
0.015941478 0.035352409 0.16400002
0.028307471 0.0042558983 0.16842429
-0.015795741 0.0077787531 0.16730769
-0.013755305 0.0087437471 0.16607273
-0.0090526789 0.0097313272 0.16500001
0.028338006 0.0068514664 0.16801034
0.031174095 0.0074968208 0.16714887
-0.015337336 0.01255101 0.16821052
-0.013877535 0.012647055 0.16669844
-0.0063802865 0.012871818 0.16625927
-0.004514792 0.01327946 0.16700003
0.025375554 0.010180664 0.16800001
0.031492606 0.011881293 0.1672353
-0.012758058 0.017423188 0.16719177
-0.0079825213 0.017489966 0.16500001
-0.0042277011 0.015293708 0.16633335
0.029168706 0.01853217 0.16574191
0.030775193 0.017276559 0.16762505
-0.010886743 0.022378851 0.16722813
-0.0096012745 0.022656599 0.16581249
0.024566431 0.024335207 0.16528574
0.027893186 0.022647584 0.16694264
0.030261252 0.022319444 0.16900001
-0.010547948 0.02561119 0.16880003
-0.0080120116 0.028074373 0.16641861
0.023350528 0.028164411 0.16581558
0.026525594 0.027274603 0.16788286
-0.0066270223 0.032260086 0.16659322
-0.0049058199 0.034612477 0.16500001
0.019028552 0.033430818 0.16588886
0.022290478 0.032325413 0.1675206
0.025483649 0.031119039 0.1688125
-0.018104479 0.0044666589 0.17400001
0.024665168 0.0034407568 0.17340003
0.026222434 0.0033704939 0.17140676
-0.016745491 0.0061523207 0.17236537
-0.013960877 0.0071853083 0.17254283
0.024732616 0.0056069447 0.17400001
0.026188022 0.0074067358 0.17259456
0.031468682 0.0058915187 0.17
-0.0033142914 0.01426171 0.17336364
0.024588853 0.01048366 0.17300001
0.025432006 0.010203149 0.17300001
-0.015881216 0.017074894 0.17200001
-0.01421838 0.01897439 0.17041178
-0.0025925029 0.016002852 0.17233334
0.031330314 0.019052625 0.171
-0.01523613 0.020889109 0.17400001
-0.013600353 0.022473713 0.17241503
0.029814802 0.024911126 0.17
0.03105961 0.022707643 0.17077781
-0.011112806 0.027510375 0.17157142
-0.0096699959 0.028779194 0.1707
0.028896408 0.02799982 0.17098249
0.030807992 0.027376771 0.17248975
-0.01063001 0.031165274 0.17289476
-0.010343157 -0.00018083111 0.178
-0.0081409728 -0.00046043631 0.17895995
0.019812677 -0.00099451782 0.17900001
0.021910159 -0.00081214414 0.17756252
-0.016352085 0.0035987212 0.1750001
-0.012591737 0.0027646422 0.17694409
-0.0086929454 0.001406748 0.17893215
0.019928772 0.00039863205 0.17900001
0.022815064 0.00231052 0.17644696
0.025621025 0.0014939803 0.17575
-0.015645282 0.0054405406 0.17500001
-0.013114428 0.007085945 0.17740278
-0.007789107 0.0095411772 0.17900001
0.023552375 0.0074283597 0.17784005
0.025316985 0.0089613814 0.17611113
-0.0030116732 0.014203966 0.17683333
0.023682486 0.010817432 0.17874996
0.025229845 0.010265263 0.17650001
-0.0019626655 0.017369621 0.17637503
0.0025423656 0.01913205 0.17704546
0.0080289487 0.018393483 0.17900001
-0.016015043 0.022729976 0.17668003
-0.01468052 0.023827782 0.17500001
-0.0026150518 0.020181844 0.17750001
0.001063199 0.020425159 0.17900001
-0.015190217 0.02724579 0.17900001
-0.013540672 0.027670341 0.17647734
0.016905278 -0.0052588223 0.18400002
-0.0058479677 -0.00099034503 0.17999999
-0.0023212733 -0.001969625 0.18261115
0.00019785691 -0.0030510556 0.18400002
0.017501382 -0.0026491401 0.18269843
0.02052654 -0.0023880347 0.18000002
-0.01084852 0.0044625909 0.18000004
-0.0070330873 0.0030192607 0.18108205
-0.0034863723 0.0017161287 0.18324465
0.019051129 0.0022895876 0.18168423
0.020681361 0.0032902516 0.18094286
-0.011162356 0.0072223139 0.18038949
-0.007846836 0.0071414714 0.18219844
-0.004874039 0.0051833154 0.18400002
0.019674098 0.0062565301 0.18307693
0.02118635 0.0075162528 0.18220313
-0.0069259969 0.010631375 0.18253846
-0.0030258971 0.014241551 0.18160002
0.016905278 0.014730413 0.18400002
0.02230709 0.011236787 0.18169233
-0.00090886437 0.017173095 0.18303575
0.0028625291 0.017571086 0.18223768
0.0071279681 0.017510412 0.18244089
0.011274714 0.016552687 0.18293755
-0.017123532 0.023749739 0.18000001
-0.00080037484 0.020670451 0.18357144
0.00063755142 0.020325635 0.18200001
-0.016150661 0.025792766 0.18000001
0.0037026221 -0.0056201546 0.18661761
0.0074179503 -0.0064845951 0.1883152
0.012088485 -0.006438063 0.18799999
0.015697293 -0.0054373867 0.185
-0.00010103606 -0.00078787887 0.185
0.0024775793 -0.0026037572 0.18642433
0.0068155169 -0.0036773898 0.18871216
0.013207551 -0.0033654238 0.18784712
0.015816992 -0.0011591436 0.18523528
-0.0016097453 0.0030491587 0.185964
0.0019680746 0.0019349873 0.18778947
0.014714058 0.00085562654 0.18814287
0.016655425 0.0025828776 0.18664758
-0.0054853526 0.0080078058 0.18521425
-0.0028359927 0.0072955685 0.18722381
0.0011633846 0.0057717543 0.18893339
0.017469602 0.0065498394 0.18810533
0.020496786 0.0095110312 0.185
-0.0057111126 0.011659547 0.18609095
-0.0030490016 0.012444815 0.18784726
0.0032810767 0.01437748 0.18788579
0.0075438609 0.014524948 0.18737213
0.012704997 0.01353423 0.18743685
0.017395316 0.013151269 0.18799999
0.021074368 0.011719149 0.18522221
-0.00051141495 0.016382739 0.18581818
0.0023888501 0.015501609 0.18585709
0.0079310974 0.015727535 0.18552169
0.012683886 0.015606897 0.18569227
0.015617301 0.015230425 0.185
0.0045173657 -0.0072787581 0.19000001
0.0094465744 -0.0082029849 0.19000001
0.0079963524 -0.0017026835 0.19062211
0.011689925 -0.0016655144 0.1904545
0.0038017354 0.0032957664 0.19064403
0.007452941 0.0017573577 0.19313347
0.012707794 0.0021644125 0.19203424
-0.00094906433 0.0088127507 0.19029632
0.0027100195 0.007642969 0.19179884
0.0054172487 0.0087400293 0.19385716
0.013568196 0.0076955673 0.19312364
0.017227447 0.0083139893 0.19052494
-0.0010233436 0.011769931 0.19045094
0.002359319 0.012094357 0.19144858
0.0072931112 0.012582338 0.19266029
0.012613148 0.011330683 0.19192427
0.017476002 0.011154859 0.19049998
0.0075844349 0.0043993657 0.19500007
0.010665441 0.0037135228 0.19560006
0.0075765387 0.007535473 0.19560695
0.010980588 0.007519986 0.19576003
0.0080567673 0.010882668 0.19500001
0.01006405 0.011289871 0.19500002
