# .PCD v0.7 - Point Cloud Data file format
VERSION 0.7
FIELDS x y z
SIZE 4 4 4
TYPE F F F
COUNT 1 1 1
WIDTH 132
HEIGHT 1
VIEWPOINT 0 0 0 1 0 0 0
POINTS 132
DATA ascii
-0.011683565 -0.021450255 0.21381827
-0.0077748541 -0.021257438 0.21397628
-0.0024441138 -0.021242442 0.21300003
0.0025415965 -0.021747056 0.21302789
0.0075328364 -0.021849453 0.2132263
0.012523616 -0.021739185 0.21369119
0.017474927 -0.021827009 0.21346578
0.021331467 -0.02283684 0.21400003
-0.011581048 -0.018210232 0.21391226
-0.0081284931 -0.019355847 0.21400005
-0.0025332151 -0.019175852 0.21386889
0.0016244136 -0.019072583 0.21379074
0.0073413206 -0.019518446 0.21378054
0.012214628 -0.019728933 0.21400006
0.017101023 -0.019684754 0.21400008
0.020182058 -0.01999585 0.21400002
-0.01254802 -0.02507931 0.21900001
0.023588181 -0.025667077 0.215
-0.012763836 -0.023264691 0.21719351
-0.0091813263 -0.02252957 0.215
0.0037173093 -0.020089287 0.215
0.022857068 -0.022193307 0.21560875
-0.010942062 -0.016083702 0.21600001
-0.0072952555 -0.017032631 0.21603082
-0.0023759203 -0.016713031 0.2154225
0.002893629 -0.017152693 0.21595818
0.0075958185 -0.017122792 0.21580423
0.012569001 -0.017401779 0.21587262
0.017566757 -0.01726204 0.21595232
0.021692615 -0.017410094 0.21736087
-0.011709969 -0.01268392 0.21814461
-0.0072088134 -0.0131651 0.21846074
-0.0025007769 -0.012973811 0.21764873
0.0025333285 -0.01282284 0.21792628
0.0074408618 -0.013002014 0.21813639
0.012371921 -0.013379442 0.21820006
0.017244156 -0.013301529 0.21825007
0.020868618 -0.014272336 0.2186875
-0.011658498 -0.0094328523 0.21850006
0.0016558829 -0.0098101161 0.21900001
-0.015568723 -0.025609622 0.22228575
-0.013450989 -0.026495116 0.22218186
-0.01532936 -0.023971176 0.22120002
-0.013497114 -0.024747929 0.22000001
-0.011344101 -0.011448819 0.22050002
-0.0074934713 -0.010968614 0.22059999
-0.0012107644 -0.010934789 0.22057897
0.0033203191 -0.010803793 0.22018184
0.00849743 -0.010662223 0.22000001
0.012812793 -0.01103535 0.22002769
0.018071949 -0.01096104 0.22011422
0.021704163 -0.012517343 0.22133963
-0.011573518 -0.00727421 0.22204919
-0.0075314469 -0.0075839171 0.22210729
-0.002426083 -0.0076224823 0.22156551
0.002661403 -0.0075928024 0.22222129
0.0076457933 -0.0076872646 0.22154385
0.012509991 -0.0076450263 0.22190082
0.017533578 -0.0076434566 0.22188427
0.020859607 -0.0078446651 0.22267571
-0.011450595 -0.00372125 0.2234706
-0.0070633409 -0.0040420103 0.22369993
-0.0024507202 -0.0037999938 0.22383074
0.0024315654 -0.0040984512 0.22359569
0.0075933863 -0.003947231 0.22357139
0.013186138 -0.0044064433 0.22375999
0.017537385 -0.004165946 0.22360002
0.020619333 -0.0046347505 0.22385716
-0.014156202 -0.028615557 0.22625002
0.023077393 -0.011016899 0.22600004
0.021932459 -0.0076428615 0.22520001
-0.011145555 -0.0013500946 0.22587097
-0.0078730686 -0.0017684129 0.22630304
-0.002424235 -0.0012544065 0.22557896
0.0027245944 -0.0017449848 0.22614291
0.0075105294 -0.0015726849 0.2260448
0.012519418 -0.0020765013 0.22645974
0.017497232 -0.0017148177 0.22627148
0.021102583 -0.0021396168 0.22651167
-0.015728626 -0.032354448 0.23399998
-0.013710079 -0.032142881 0.23176192
0.023179391 -0.0076635 0.23400001
-0.015369974 -0.034341879 0.23500001
-0.012999562 -0.032091036 0.23712501
-0.011965971 -0.028949019 0.23888887
0.023883317 -0.0071061384 0.23536009
-0.015562978 -0.037437458 0.24400002
-0.014573893 -0.037239641 0.24400002
-0.011427853 -0.03092109 0.24025001
-0.011210565 -0.028077712 0.24128573
-0.015229505 -0.040768929 0.245
-0.012065652 -0.041428655 0.24499992
-0.007512169 -0.041738912 0.24503167
-0.002618307 -0.041773401 0.24548657
0.0024522853 -0.042128794 0.24538165
0.0073664263 -0.042106941 0.24557507
0.012453012 -0.042055942 0.24527507
0.017505255 -0.042029858 0.24526596
0.021083441 -0.041650064 0.24603701
-0.015590645 -0.038927108 0.24499997
-0.011975569 -0.037700672 0.24537222
-0.0075828051 -0.037367117 0.24665706
-0.0025241205 -0.037560128 0.24701725
0.0024730389 -0.037490983 0.24739206
0.007427285 -0.037545726 0.24745531
0.012486512 -0.037597511 0.24721898
0.017457116 -0.037508674 0.24710907
0.020757345 -0.037704978 0.24687095
-0.011085742 -0.03317523 0.24703451
-0.0083160112 -0.033665176 0.24857502
-0.0023733878 -0.034268133 0.24900006
0.0023048094 -0.034314014 0.24900006
0.0077688359 -0.034379691 0.24900004
0.012514565 -0.034369074 0.24900004
0.01788602 -0.03398722 0.24884854
0.020614132 -0.033925906 0.24822225
-0.010270598 -0.030453481 0.25
-0.0070220809 -0.031639878 0.25065714
-0.0026247976 -0.031849254 0.25049317
0.0025606269 -0.032010943 0.25041026
0.0074006966 -0.03193124 0.25081822
0.012599243 -0.031868845 0.25086018
0.017385583 -0.031688094 0.25055745
0.020543357 -0.031652182 0.25078571
-0.010270598 -0.029845435 0.25
-0.0073842695 -0.028538477 0.25189587
-0.0024653526 -0.028949965 0.25164998
0.0024091324 -0.029296758 0.25155994
0.0070366138 -0.029106606 0.25193754
0.01240456 -0.029056964 0.25195
0.017701572 -0.029553929 0.25120002
0.02041561 -0.029964818 0.25100002
