# .PCD v0.7 - Point Cloud Data file format
VERSION 0.7
FIELDS x y z
SIZE 4 4 4
TYPE F F F
COUNT 1 1 1
WIDTH 164
HEIGHT 1
VIEWPOINT 0 0 0 1 0 0 0
POINTS 164
DATA ascii
-0.04640647 0.029921621 0.12654546
-0.043715071 0.029928919 0.12677777
-0.036102749 0.029844182 0.12790908
-0.034624852 0.029696167 0.12900001
-0.050346613 0.03394416 0.12899999
-0.047272377 0.032470647 0.12751409
-0.042586885 0.032397274 0.12748173
-0.037182242 0.032185037 0.12735924
-0.03437385 0.031267904 0.12899998
-0.046341136 0.035459943 0.12883332
-0.042822558 0.035845667 0.12900005
-0.037710857 0.035778087 0.12900007
-0.035553336 0.028411819 0.13315783
-0.034673385 0.029230427 0.13266666
-0.049395513 0.034738373 0.13000001
-0.035892058 0.033463698 0.13053854
-0.034336284 0.032648265 0.13188332
-0.050792485 0.037993278 0.13193938
-0.047531661 0.037595347 0.1309285
-0.042446084 0.037767928 0.13089405
-0.03709501 0.037894867 0.13149995
-0.034275964 0.037106358 0.13258062
-0.050736111 0.041205741 0.13399999
-0.047034875 0.041348394 0.13337068
-0.04253874 0.041262548 0.133205
-0.037603524 0.041493934 0.13318302
-0.034524199 0.040937398 0.13400005
-0.036455307 0.024785846 0.13850001
-0.03580201 0.02692629 0.13755563
-0.034856547 0.029516462 0.13700002
-0.05458333 0.032484025 0.13800001
-0.034412567 0.032504592 0.13679016
-0.053396739 0.039745655 0.13500001
-0.03409119 0.037897378 0.13768032
-0.052458137 0.042923369 0.13589688
-0.047653265 0.043788925 0.13538463
-0.042551517 0.043862075 0.1356757
-0.036731843 0.043666445 0.13543645
-0.034162972 0.042523805 0.13663782
-0.055294394 0.046883985 0.13900003
-0.052185774 0.046616323 0.13816386
-0.047304045 0.047439355 0.13783754
-0.042608377 0.047337476 0.13763089
-0.037560716 0.047378942 0.13751662
-0.034380917 0.047082141 0.13801341
-0.04729335 0.050118871 0.13900001
-0.043574557 0.050118871 0.13900001
-0.037167277 0.050344251 0.13900001
-0.034446605 0.050118871 0.13900001
-0.03658447 0.023468427 0.14229414
-0.035656184 0.027170936 0.14236735
-0.034806263 0.027884923 0.14289477
-0.054032378 0.033235926 0.141
-0.035261281 0.031141039 0.14269233
-0.034441601 0.032889668 0.14138232
-0.034004875 0.037093535 0.14205559
-0.0335145 0.04290675 0.14136675
-0.055323992 0.048856247 0.14033334
-0.052845486 0.048935097 0.14016666
-0.04709851 0.049571432 0.14
-0.041436411 0.049616829 0.14
-0.036283437 0.049571428 0.14
-0.033399709 0.047186267 0.14179596
-0.056232914 0.051686067 0.14271164
-0.052347399 0.052190997 0.1423845
-0.04724662 0.052444592 0.14165537
-0.042256072 0.052342098 0.14126587
-0.037462126 0.022473725 0.14782612
-0.035580844 0.028588392 0.145
-0.034875512 0.029829249 0.14500001
-0.035262372 0.032702945 0.14731251
-0.03468281 0.032451846 0.14654545
-0.035526972 0.037675668 0.149
-0.033887833 0.038700163 0.14520001
-0.033618368 0.041485455 0.14556861
-0.032707192 0.048376054 0.14531249
-0.040228289 0.018845608 0.15340002
-0.038365301 0.018731292 0.15155099
-0.040009603 0.020301795 0.15200001
-0.037351973 0.021577286 0.15072131
-0.065607376 0.029158495 0.15382355
-0.065447122 0.032047838 0.15392596
-0.063719593 0.034025751 0.15355313
-0.057001747 0.034599271 0.15389287
-0.05194005 0.034545761 0.15389287
-0.049389157 0.034484208 0.15400004
-0.035786252 0.034676358 0.15000001
-0.061810669 0.035228364 0.15314706
-0.057508491 0.035354666 0.15362784
-0.052359186 0.035422932 0.15315387
-0.049345125 0.035440229 0.15352635
-0.035510965 0.037412267 0.15156524
-0.034621857 0.038678683 0.15239291
-0.035470542 0.040294793 0.1517143
-0.033511546 0.042589605 0.15277275
-0.033709567 0.046429582 0.15072003
-0.067095086 0.013877613 0.15850906
-0.063548945 0.013651687 0.15899996
-0.05698777 0.014089667 0.15900008
-0.052954614 0.013805981 0.15900002
-0.047643576 0.013813404 0.15900016
-0.042841688 0.014071104 0.15886058
-0.039169703 0.014489853 0.15807998
-0.067225903 0.016891425 0.15834394
-0.064797297 0.016080534 0.15900001
-0.056565769 0.015491255 0.15899998
-0.052938007 0.015283667 0.15900004
-0.046660315 0.015371558 0.15899999
-0.04326003 0.016265107 0.15867439
-0.038781058 0.016906817 0.15680826
-0.067176625 0.022572024 0.15700953
-0.043270104 0.020850029 0.15900001
-0.066445023 0.027115164 0.1565064
-0.065700747 0.031673506 0.15710145
-0.062789604 0.03336785 0.15703385
-0.057529002 0.033284698 0.15700008
-0.052596211 0.032883938 0.15671371
-0.048892658 0.033624962 0.156371
-0.06316717 0.035028003 0.155
-0.058475774 0.035028003 0.155
-0.052234538 0.035027999 0.155
-0.048148144 0.035016444 0.15542859
-0.065334529 0.014884511 0.16000001
-0.062250465 0.014365645 0.15999994
-0.058422524 0.013587352 0.16000003
-0.051977839 0.013550866 0.15999992
-0.049638897 0.014884511 0.16000001
-0.042763948 0.013327919 0.16000001
-0.066292569 0.018469593 0.16083036
-0.062316593 0.017461846 0.16103967
-0.057271037 0.017800214 0.16080315
-0.052493379 0.017668162 0.16118744
-0.047702029 0.017761953 0.16088021
-0.043707754 0.017537834 0.1607046
-0.066483304 0.022169454 0.1619622
-0.062768996 0.02142396 0.16351056
-0.057109449 0.022073561 0.16280244
-0.052767709 0.021738566 0.16333321
-0.047228612 0.022008698 0.16308191
-0.044605315 0.021144215 0.16150001
-0.066740751 0.027549153 0.16150436
-0.061342057 0.029762825 0.16383335
-0.057867393 0.029060099 0.16308828
-0.052937046 0.029322157 0.16393752
-0.047725823 0.02611349 0.16340001
-0.065680288 0.030765068 0.16185716
-0.061836589 0.031438638 0.16166963
-0.05773836 0.031099554 0.16117893
-0.052376714 0.031178055 0.1621041
-0.049613912 0.032071758 0.16231251
-0.066131547 0.023948675 0.16561286
-0.06233209 0.023775611 0.16550623
-0.057354216 0.024510197 0.16499998
-0.051883638 0.023690747 0.16548751
-0.049234543 0.023779582 0.16520001
-0.06637536 0.027494665 0.16649587
-0.062494021 0.027399259 0.1664023
-0.057447001 0.027559048 0.16615607
-0.052327804 0.027553642 0.16670777
-0.049298473 0.026292557 0.16628572
-0.066091254 0.030877596 0.16704543
-0.063893482 0.030526452 0.16542858
-0.055844486 0.030332815 0.16525
-0.051908489 0.030691568 0.16503222
