# .PCD v0.7 - Point Cloud Data file format
VERSION 0.7
FIELDS x y z
SIZE 4 4 4
TYPE F F F
COUNT 1 1 1
WIDTH 157
HEIGHT 1
VIEWPOINT 0 0 0 1 0 0 0
POINTS 157
DATA ascii
-0.06869106 -0.013534077 0.20377779
-0.070724703 -0.016122818 0.20836367
-0.067343645 -0.016134169 0.20818426
-0.064325333 -0.017206218 0.2083158
-0.070466153 -0.011350872 0.20820001
-0.068197533 -0.012733241 0.20860484
-0.070331149 -0.009343924 0.2086
-0.069392145 -0.0094525907 0.20885715
-0.056314249 -0.020747535 0.21357144
-0.075061373 -0.017139461 0.21300001
-0.073219769 -0.016882459 0.21144442
-0.065287262 -0.015467941 0.21000002
-0.062134538 -0.016797638 0.21134217
-0.058040053 -0.017883945 0.21320684
-0.066107653 -0.012010732 0.2105695
-0.062639698 -0.012884106 0.21247207
-0.058862336 -0.014235809 0.21400002
-0.071143083 -0.0074277837 0.21219997
-0.067470767 -0.008027357 0.21277344
-0.063810416 -0.009267468 0.21340004
-0.070407316 -0.0017597327 0.21345457
-0.069869488 -0.0014291932 0.21360002
-0.07055591 0.00012958659 0.21400002
-0.076830842 -0.021245694 0.2181021
-0.074614152 -0.020457972 0.21800001
-0.055817276 -0.020912351 0.21537502
-0.05273452 -0.021357996 0.21749376
-0.049410108 -0.022000339 0.21865711
-0.076728888 -0.019461054 0.21718186
-0.074707106 -0.019617554 0.2175
-0.055898696 -0.017149892 0.21552092
-0.053421672 -0.017983861 0.21747001
-0.049833264 -0.019752847 0.21900001
-0.060893167 -0.011161532 0.21525812
-0.057431087 -0.012491102 0.21672514
-0.054586619 -0.01395002 0.21857896
-0.071736313 -0.0058186534 0.21584213
-0.067451105 -0.0058784815 0.21507697
-0.062587939 -0.0072756121 0.21684286
-0.058974966 -0.0081773177 0.21807274
-0.070975356 -0.0039631906 0.21575005
-0.067604907 -0.0023901591 0.21613654
-0.063912041 -0.0034625919 0.21809091
-0.070555717 0.001153011 0.21747059
-0.06727457 0.0019231259 0.21755339
-0.068241134 0.0059460774 0.21800002
-0.046324611 -0.025766801 0.22239137
-0.044229016 -0.026292428 0.22312503
-0.052201133 -0.023350781 0.22000001
-0.047014304 -0.022232072 0.2215392
-0.044354815 -0.02253598 0.22336842
-0.051448043 -0.016840903 0.22048482
-0.047861088 -0.017743563 0.22258675
-0.044578608 -0.019477416 0.22400001
-0.055776305 -0.010910589 0.22011113
-0.052368227 -0.01249974 0.22190581
-0.049571157 -0.01359503 0.22375
-0.056816213 -0.0073661809 0.22125894
-0.053834241 -0.0082066152 0.22321428
-0.065399736 -0.00022349911 0.22000001
-0.062056329 -0.0020633109 0.22035868
-0.058117401 -0.0028456277 0.22259536
-0.054966267 -0.0047676223 0.22400001
-0.071107239 0.0029869715 0.22000001
-0.065966003 0.003293867 0.22017641
-0.062490102 0.0024952786 0.22179566
-0.059301563 0.0018245477 0.22308336
-0.045629036 -0.03104751 0.22862501
-0.044276144 -0.030757505 0.22800004
-0.046165202 -0.028709166 0.227
-0.043071996 -0.027371073 0.22670591
-0.0432196 -0.022446016 0.22692455
-0.046180081 -0.015969617 0.22557141
-0.043827541 -0.017743813 0.22727944
-0.050677381 -0.010287358 0.22500002
-0.047469381 -0.012417475 0.22671072
-0.04431368 -0.013277345 0.22840913
-0.051658962 -0.0070477859 0.22610115
-0.048911996 -0.0079954593 0.22840326
-0.055972967 -0.0016293809 0.22512896
-0.052897125 -0.0027625165 0.22703053
-0.049880885 -0.004317075 0.22900002
-0.057104703 0.0025864849 0.22637273
-0.053937234 0.00077627203 0.22813798
-0.050211146 -0.033436909 0.23400001
-0.048294161 -0.032294903 0.23216215
-0.085483894 -0.027760325 0.23225002
-0.083813742 -0.02682909 0.23261365
-0.048173241 -0.02970179 0.2315
-0.082267269 -0.024813907 0.231875
-0.042764179 -0.021110881 0.23121053
-0.043123364 -0.017071968 0.23207691
-0.046230242 -0.010461985 0.23008335
-0.04326285 -0.012043238 0.23138458
-0.046510413 -0.0071952273 0.23059748
-0.043789808 -0.0074843229 0.23290002
-0.0507061 -0.0013220147 0.23029169
-0.047846884 -0.0027171273 0.23212396
-0.044519138 -0.0043418133 0.23366669
-0.080398247 -0.035745054 0.23800001
-0.079517722 -0.035482686 0.23883334
-0.085964166 -0.031271409 0.23562971
-0.082481407 -0.032391436 0.23715852
-0.079679161 -0.033887155 0.23900002
-0.050616242 -0.032436676 0.23500001
-0.049663644 -0.034532402 0.23500001
-0.086446784 -0.029426463 0.23500009
-0.082333028 -0.027688049 0.23738478
-0.080968827 -0.023604613 0.23816667
-0.042833216 -0.017205199 0.23581254
-0.04225615 -0.012050264 0.23611543
-0.042163286 -0.0071554901 0.23636587
-0.055819795 -0.04004211 0.24300002
-0.076568007 -0.036222033 0.24092001
-0.073008992 -0.036885489 0.24292858
-0.055829424 -0.037947755 0.24272002
-0.053836375 -0.037254184 0.24207151
-0.080795906 -0.031542432 0.24000002
-0.077676445 -0.032583207 0.24187015
-0.07407169 -0.034015581 0.24358335
-0.053497333 -0.034776244 0.24200001
-0.080861375 -0.026997123 0.2406286
-0.079039507 -0.028415151 0.24261194
-0.080802605 -0.023261707 0.24035297
-0.079834811 -0.023042986 0.24121432
-0.070934974 -0.040536456 0.24600001
-0.066819437 -0.040936939 0.24670836
-0.062869526 -0.041380987 0.24809761
-0.071289927 -0.037126165 0.24587996
-0.06761834 -0.037656017 0.24711189
-0.063982956 -0.039254822 0.24875005
-0.05704122 -0.035934288 0.2466667
-0.054955035 -0.035207354 0.245
-0.075416297 -0.03077965 0.24533336
-0.072456963 -0.032261036 0.24721816
-0.068686366 -0.033887144 0.24864292
-0.056539562 -0.034520917 0.24816668
-0.080379374 -0.025673231 0.245
-0.076879792 -0.027314991 0.24605627
-0.073770814 -0.027736939 0.24830505
-0.080379374 -0.023753166 0.245
-0.077794127 -0.024135511 0.24602041
-0.073998109 -0.024705894 0.24825001
-0.061265424 -0.041217018 0.25107694
-0.05961331 -0.041441105 0.25066671
-0.065679699 -0.036084808 0.25016665
-0.062505193 -0.037468527 0.25102359
-0.059663374 -0.036783651 0.25071433
-0.070579536 -0.030746242 0.25
-0.067053065 -0.032123689 0.25113413
-0.06327334 -0.033067513 0.25280523
-0.058156282 -0.033080745 0.25155169
-0.071422182 -0.027690521 0.2505255
-0.067729741 -0.028494779 0.25198078
-0.064129733 -0.029211797 0.25388888
-0.061652172 -0.031933125 0.25542858
-0.063038357 -0.029408671 0.25500003
