# .PCD v0.7 - Point Cloud Data file format
VERSION 0.7
FIELDS x y z
SIZE 4 4 4
TYPE F F F
COUNT 1 1 1
WIDTH 224
HEIGHT 1
VIEWPOINT 0 0 0 1 0 0 0
POINTS 224
DATA ascii
0.049275436 -0.00017575157 0.17300002
0.052317973 -0.00028886928 0.17350005
0.038046658 0.0030249057 0.17188424
0.042564236 0.0032860022 0.1712283
0.047484953 0.0026150027 0.17269443
0.051635582 0.0016147092 0.17368956
0.03831799 0.0060212053 0.17329995
0.042559579 0.0069089131 0.17310499
0.045805402 0.0064222571 0.17363334
0.033894446 -0.00074271148 0.17691666
0.035863541 -0.00038892619 0.17620003
0.054709442 -0.00050207344 0.17500003
0.057806477 -0.0008814566 0.17579716
0.062856615 -0.0016875666 0.17757764
0.066564128 -0.0025907783 0.17881078
0.034123268 0.0024125436 0.17635001
0.035852715 0.0024995096 0.17533849
0.049380764 0.0047234176 0.175
0.053199995 0.0034464349 0.17531916
0.05735518 0.0024408265 0.17661604
0.062091567 0.0014120606 0.1784853
0.06520614 0.00039863205 0.17900001
0.034490801 0.0068640481 0.1772273
0.037172217 0.0079234866 0.17618252
0.041865371 0.009123629 0.17551436
0.047850508 0.0078119766 0.17556396
0.052134402 0.0074451216 0.17705715
0.056386754 0.0064260266 0.17874599
0.034730993 0.010944001 0.17900001
0.037749194 0.011866766 0.17738247
0.04249911 0.012405347 0.17692472
0.047104362 0.011993499 0.17752352
0.050171733 0.010673112 0.17900001
0.039637264 0.016496006 0.17887498
0.041513126 0.016206225 0.17897217
0.068619549 -0.0051873703 0.1815
0.032199305 -0.0025865575 0.18170722
0.035444599 -0.0015515033 0.18066667
0.064986698 -0.0045607775 0.18000001
0.067963287 -0.0019775003 0.18057893
0.070570879 -0.00091012107 0.18357144
0.032483239 0.0025237466 0.18195456
0.059295412 0.0046328437 0.18000001
0.062662452 0.0036624693 0.18061046
0.067449547 0.002484492 0.1825235
0.07037735 0.0016325131 0.18375002
0.033234656 0.0070434366 0.18275383
0.054654818 0.0092150616 0.18000001
0.057951625 0.0080929846 0.18097734
0.062334601 0.0072931736 0.18271236
0.066453084 0.0065635056 0.18383931
0.034652617 0.012484253 0.18107407
0.036856994 0.014038119 0.18035091
0.042902552 0.014993909 0.18000001
0.04862858 0.014222561 0.17999995
0.052646551 0.012552145 0.18103889
0.056982037 0.012023794 0.18247488
0.060823478 0.010958888 0.18394738
0.034854926 0.015822938 0.18166667
0.037451115 0.017569663 0.1818071
0.042922586 0.017936844 0.18082735
0.047446892 0.017638575 0.18124996
0.052178688 0.017099343 0.18292494
0.05592167 0.016136533 0.18360873
0.037750211 0.021377496 0.18358746
0.042323567 0.022231432 0.18293108
0.047084168 0.021502169 0.18332604
0.050710272 0.020467851 0.18400002
0.028827958 -0.006622571 0.1874231
0.030784287 -0.0059347572 0.18589473
0.06847924 -0.0069371439 0.18722671
0.070654914 -0.0064505092 0.18551852
0.029235948 -0.0028513521 0.18729785
0.030226065 -0.0025697388 0.18518747
0.066743374 -0.0049251108 0.1855
0.071019366 -0.0032608388 0.18533334
0.029527942 0.0015972363 0.18811114
0.030759556 0.002493792 0.18727998
0.069191635 0.0049115173 0.185
0.07041835 0.0044198795 0.18533334
0.031937599 0.0078290273 0.18673977
0.064192168 0.0094910329 0.18499999
0.067597918 0.0083187427 0.18575999
0.03317168 0.012379982 0.18638887
0.059174072 0.013847623 0.18565623
0.062759593 0.012748422 0.18594451
0.066867165 0.012376954 0.1875757
0.033794619 0.017714968 0.18740246
0.035297129 0.019226212 0.18677779
0.053980738 0.018935036 0.18499997
0.057786401 0.017852079 0.186487
0.061765783 0.016819285 0.18825375
0.066008344 0.015240212 0.18866667
0.027928954 -0.010533038 0.19347368
0.030301644 -0.010682462 0.19400001
0.064693689 -0.011364011 0.19400001
0.06683144 -0.011342182 0.1933715
0.027150007 -0.007973657 0.19259304
0.030154636 -0.008907998 0.19320002
0.067040645 -0.008290587 0.19156666
0.070383914 -0.0086342907 0.19000001
0.027992766 -0.0027708709 0.19218424
0.065978438 -0.0045060785 0.19000001
0.029001337 0.002566027 0.19169232
0.02960225 0.0064715841 0.19159092
0.030449161 0.0084724957 0.19080955
0.071216881 0.0080703581 0.19124138
0.031133166 0.012527792 0.19153707
0.069567882 0.013344217 0.19120002
0.070723273 0.011710701 0.19181819
0.032022238 0.016915845 0.19275001
0.063484281 0.018434545 0.1904545
0.067547031 0.01751541 0.19174777
0.070383362 0.016297828 0.19250003
0.024353296 -0.012269598 0.19859377
0.026698153 -0.011985047 0.19712724
0.030677266 -0.011099163 0.19625002
0.063908823 -0.012158584 0.19737498
0.06533704 -0.013732441 0.19654548
0.024503024 -0.0076815607 0.19833335
0.025479615 -0.0068274694 0.19609524
0.033050533 -0.0071893907 0.19620001
0.035654452 -0.005760083 0.19638464
0.064280756 -0.0084231338 0.19742426
0.065877728 -0.0067980206 0.19636919
0.024467908 -0.0041817441 0.19900003
0.026554339 -0.0025229261 0.19681819
0.035849139 -0.0046958085 0.19800001
0.064548276 -0.0039860588 0.19780001
0.065925993 -0.0044612936 0.19764705
0.027546192 0.0023369279 0.19664176
0.028523754 0.0075780326 0.19735712
0.029366363 0.011464807 0.19761764
0.030392699 0.01457087 0.19700001
0.024392685 -0.015444811 0.20000002
0.027720202 -0.016169522 0.20049997
0.032745913 -0.016415102 0.20207891
0.037288316 -0.017364381 0.20359534
0.062681757 -0.016479261 0.20228794
0.065398619 -0.015279559 0.20066667
0.023979329 -0.013928886 0.20027274
0.028088603 -0.013812586 0.20070909
0.032348592 -0.01298759 0.20260216
0.035281602 -0.014761379 0.20400001
0.062815227 -0.012749049 0.20229512
0.065235212 -0.014796231 0.2
0.033697918 -0.0083833961 0.20192315
0.036591567 -0.0070361802 0.20299999
0.063887082 -0.007300138 0.2021569
0.024590857 -0.0018553 0.20084617
0.025568947 -0.001618708 0.20047061
0.0382214 -0.0045025866 0.20380001
0.043750014 -0.0011038618 0.2035
0.064534575 -0.0043910793 0.20215388
0.024705704 0.0023399263 0.20205002
0.025885744 0.0027426509 0.20204763
0.043898873 0.00028714869 0.20275001
0.024696773 0.0064082709 0.20400001
0.026695121 0.0076997988 0.20252834
0.028427823 0.013117335 0.20122918
0.042992309 -0.020301133 0.20566671
0.047805615 -0.020840652 0.20750982
0.052350052 -0.021542888 0.20885907
0.057572506 -0.02137612 0.20900008
0.061027311 -0.020316515 0.20854548
0.038750771 -0.015777651 0.20511109
0.042477429 -0.017518448 0.20606415
0.047127072 -0.017656779 0.20809712
0.051011261 -0.019083356 0.20895004
0.059455741 -0.01768136 0.20854293
0.060812104 -0.01742154 0.20585182
0.03436587 -0.011819426 0.20525922
0.037548717 -0.012480473 0.20653327
0.042074338 -0.013056689 0.20823401
0.045896556 -0.014194369 0.2088
0.059789076 -0.013949379 0.20833334
0.061301734 -0.012285981 0.2069625
0.038014311 -0.008288824 0.20727536
0.040325906 -0.0082325563 0.20900002
0.062599055 -0.0078636678 0.20763634
0.039318521 -0.0045123114 0.2058889
0.043426506 -0.0023858843 0.20675759
0.046850823 -0.0011320462 0.20800006
0.050942868 -0.001013228 0.20890912
0.056055728 -0.0013984146 0.20900001
0.063667871 -0.0041158497 0.20700005
0.02427086 0.0048010037 0.20600002
0.025981227 0.0044453004 0.20500001
0.047117423 0.00042617865 0.20757897
0.050412044 0.00023877755 0.20866668
0.024878368 0.0058724796 0.20550002
0.025731597 0.0073991027 0.20554543
0.054195777 -0.020515919 0.21000002
0.057068788 -0.021537434 0.21000002
0.060589045 -0.021406179 0.21080001
0.048858557 -0.016038217 0.21021432
0.052791361 -0.017186547 0.21101782
0.057158127 -0.017350592 0.21094266
0.043568894 -0.01122583 0.21029732
0.047653433 -0.012297704 0.21150474
0.051935174 -0.013340632 0.21320292
0.058096766 -0.013093097 0.21356007
0.060138535 -0.011432506 0.21136367
0.042619418 -0.0075727445 0.21132253
0.046781909 -0.0076435036 0.21308987
0.059556462 -0.0081943786 0.2139167
0.061120316 -0.0071033807 0.2114194
0.039508864 -0.0022602871 0.21066669
0.042042289 -0.0031676688 0.2114737
0.047845237 -0.0030404748 0.21261644
0.052535426 -0.0025273799 0.2120253
0.057519566 -0.0032165714 0.21217081
0.061794877 -0.0037342524 0.21109439
0.042279735 0.00012837551 0.21200001
0.048760574 0.00040001338 0.21020003
0.053470388 -0.011647253 0.21506131
0.056448206 -0.011214969 0.21555558
0.049125545 -0.0069567738 0.21538714
0.052398212 -0.0076404642 0.21613936
0.057419766 -0.0074465438 0.21666931
0.060349554 -0.006151964 0.21525002
0.049455173 -0.0044714822 0.21500002
0.052432299 -0.0045562116 0.21513043
0.056473892 -0.0047503719 0.21500002
