# .PCD v0.7 - Point Cloud Data file format
VERSION 0.7
FIELDS x y z
SIZE 4 4 4
TYPE F F F
COUNT 1 1 1
WIDTH 162
HEIGHT 1
VIEWPOINT 0 0 0 1 0 0 0
POINTS 162
DATA ascii
0.061852254 0.029067764 0.12240148
0.059848107 0.031708494 0.12400001
0.06236713 0.032066874 0.1228646
0.065176189 0.034355782 0.12400001
0.063858449 0.035363793 0.12400004
0.065125927 0.035210285 0.12400001
0.059146214 0.027937382 0.1273504
0.060598422 0.027707709 0.12617646
0.05935334 0.031457208 0.12777589
0.060893133 0.033262677 0.12612379
0.062531747 0.037448961 0.12681459
0.06631013 0.038177155 0.12717144
0.063446529 0.041258611 0.12892514
0.065798156 0.040656518 0.12899998
0.054897223 0.023872677 0.134
0.056554336 0.024213929 0.13278006
0.054874025 0.026304366 0.13373335
0.056897327 0.027202306 0.13156493
0.060987409 0.026216492 0.13000003
0.058279321 0.032590371 0.13159198
0.060193446 0.03310401 0.13000007
0.058832563 0.037308466 0.13293903
0.060779385 0.037909016 0.13143432
0.059304439 0.040829215 0.13369697
0.06193402 0.042718817 0.13256425
0.067796692 0.043004479 0.1319259
0.070079342 0.044004258 0.13344446
0.063262761 0.04642253 0.13321495
0.066832542 0.046194803 0.13307458
0.066890769 0.050532233 0.13400002
0.053001449 0.019424725 0.13900003
0.053463448 0.022689246 0.13727935
0.055597968 0.023161523 0.13614285
0.053820372 0.027068561 0.13637738
0.055209436 0.028963951 0.13579999
0.054524411 0.032108471 0.1382381
0.056279238 0.032725513 0.1360936
0.05462553 0.035667934 0.13900003
0.056782898 0.037374824 0.13741104
0.058296222 0.042445987 0.13726509
0.06203647 0.044405948 0.13608335
0.059442881 0.046702411 0.13729827
0.06228976 0.04798587 0.13629708
0.068081707 0.048601337 0.13556078
0.071461782 0.04799068 0.13736765
0.048839264 0.019101299 0.14326867
0.051375568 0.01933478 0.1413478
0.049263116 0.021355422 0.14248939
0.051500089 0.022673333 0.14154828
0.057161555 0.021736929 0.14032958
0.052169789 0.027461482 0.14217336
0.067969762 0.029115845 0.14330772
0.053649414 0.032209456 0.14215796
0.067859046 0.030229345 0.14300001
0.054484375 0.036667094 0.14276275
0.055665594 0.038697552 0.14056359
0.054951228 0.040609263 0.142
0.056630492 0.042729273 0.1410794
0.057839509 0.047580354 0.14199993
0.049059194 0.017616186 0.14620455
0.050935753 0.017939627 0.147
0.048828557 0.022782272 0.14578813
0.050225753 0.024708504 0.14600001
0.049045589 0.027131239 0.14742394
0.050750077 0.028077004 0.14693935
0.068405069 0.029846044 0.14500001
0.049553052 0.03032889 0.14860001
0.051828008 0.032670371 0.14628583
0.069278337 0.030181915 0.14500001
0.074359566 0.03129949 0.14871429
0.076723821 0.031870402 0.14837632
0.053078655 0.037588641 0.14665644
0.055171721 0.039586324 0.14500001
0.054067351 0.04212109 0.14712887
0.05566382 0.043325797 0.14549997
0.081019536 0.0094820978 0.15400003
0.053261515 0.014273822 0.15075003
0.057549808 0.01334881 0.15295516
0.060188033 0.012016585 0.15400003
0.081002884 0.011679487 0.15400003
0.052799936 0.016846087 0.15079616
0.056331843 0.016767779 0.15292312
0.057311989 0.020426236 0.15400003
0.061155632 0.021318033 0.15400001
0.048432082 0.028863247 0.15103705
0.064575501 0.026723102 0.15180001
0.068032436 0.028246831 0.15206453
0.070980653 0.028573334 0.15340002
0.077955924 0.029268852 0.15262358
0.080418199 0.029157136 0.15300003
0.049218476 0.032297742 0.15235385
0.050574839 0.033310562 0.15038601
0.068679444 0.030160209 0.15200001
0.074193344 0.030964019 0.15346508
0.076604247 0.030553868 0.15159756
0.049569517 0.036304809 0.1536667
0.050847646 0.037431858 0.15168142
0.064361893 0.0097606238 0.156
0.068107367 0.0090314224 0.15803573
0.070129722 0.0081804832 0.15900002
0.079741068 0.008934279 0.15827778
0.080965079 0.008678697 0.1572222
0.059806045 0.014243441 0.15499999
0.062708102 0.012662087 0.15596113
0.066920348 0.011913451 0.15828446
0.079716749 0.010262826 0.15775001
0.080987915 0.012602082 0.15718037
0.058591157 0.017799759 0.15561444
0.061821777 0.016666513 0.15801272
0.065559879 0.016324777 0.15899999
0.081825115 0.01748703 0.15721354
0.05832782 0.020640248 0.15516666
0.061393101 0.0213276 0.15611112
0.066705465 0.023012152 0.15854166
0.082804888 0.022255588 0.15814923
0.067841843 0.026774742 0.15674154
0.073024631 0.028261684 0.15628038
0.077445686 0.027729325 0.15661462
0.081500664 0.026951103 0.15707888
0.048715025 0.033699267 0.1568049
0.068036564 0.030337704 0.15700001
0.072757684 0.030321237 0.15613337
0.075564101 0.030001504 0.155
0.049190585 0.037223961 0.15674514
0.050305963 0.03980317 0.155
0.074888475 0.0047666626 0.16000001
0.075722083 0.004786524 0.16066669
0.073121674 0.0078783464 0.16099331
0.077331081 0.0079825949 0.16105364
0.0810716 0.0078366091 0.16000003
0.068706155 0.013561479 0.16093478
0.072421394 0.012502675 0.16314168
0.077949397 0.012049512 0.16288878
0.080621503 0.013197706 0.16140428
0.063327782 0.018398445 0.16037329
0.067271508 0.017729199 0.1620155
0.070785955 0.015780708 0.16391669
0.079751179 0.016687352 0.16326089
0.0813784 0.017719621 0.16303411
0.062889703 0.020961374 0.16154353
0.067199454 0.022620557 0.16240446
0.072676495 0.024403343 0.16262507
0.077443317 0.02403578 0.16288501
0.082045086 0.023090376 0.16166663
0.06933783 0.0253298 0.16044445
0.072738484 0.026328139 0.16091338
0.077566653 0.025956906 0.16108988
0.081464253 0.025456771 0.1610263
0.074192755 0.014198065 0.16499999
0.077039406 0.014060911 0.16567996
0.0696612 0.019286301 0.16500002
0.072695114 0.01762577 0.16597119
0.077957042 0.017498394 0.16723128
0.080305398 0.018072609 0.16645835
0.069460586 0.022380689 0.16555879
0.072539479 0.022243511 0.16645162
0.077526532 0.021883372 0.16707316
0.081451938 0.021964204 0.16518812
0.078884646 0.019092718 0.17176473
0.080030553 0.018020764 0.17400001
0.078555316 0.020232379 0.17125
0.079412229 0.018776966 0.17500001
