# .PCD v0.7 - Point Cloud Data file format
VERSION 0.7
FIELDS x y z
SIZE 4 4 4
TYPE F F F
COUNT 1 1 1
WIDTH 68
HEIGHT 1
VIEWPOINT 0 0 0 1 0 0 0
POINTS 68
DATA ascii
0.059645992 -0.085765339 0.31
0.061948095 -0.085745141 0.31033337
0.059394673 -0.082288682 0.30999997
0.062419757 -0.082653202 0.31050831
0.067677505 -0.082548775 0.31099999
0.072944529 -0.082432844 0.3110185
0.077659927 -0.082014509 0.31125486
0.082259618 -0.081918061 0.31057143
0.08736375 -0.081643172 0.31065711
0.092456847 -0.081702456 0.31138
0.095257461 -0.081604183 0.31140003
0.059153073 -0.079267703 0.31042859
0.062833592 -0.077959336 0.31237274
0.067470402 -0.07754235 0.31248721
0.072355337 -0.077496596 0.31249318
0.077498049 -0.077399828 0.31283337
0.082459301 -0.077489197 0.312525
0.087536924 -0.077391133 0.31274334
0.091453701 -0.078371875 0.31325006
0.064743266 -0.074143611 0.31400001
0.067747168 -0.073990867 0.31400004
0.070852891 -0.074143611 0.31400001
0.079083912 -0.073973909 0.31400001
0.082274497 -0.073906012 0.31400007
0.086890653 -0.073973894 0.31400004
0.059763413 -0.077311799 0.3186667
0.061591931 -0.076583326 0.31672224
0.074653834 -0.075401247 0.31500003
0.076441489 -0.075401247 0.31500003
0.093023606 -0.076291509 0.31638098
0.095515661 -0.075324237 0.31900001
0.063322835 -0.072516039 0.31697613
0.067364536 -0.072026514 0.31611761
0.072602384 -0.072350316 0.31593555
0.077504858 -0.072155699 0.31560338
0.082451038 -0.071598828 0.31538624
0.087337002 -0.072100028 0.31557131
0.092111915 -0.072508417 0.31809807
0.095216237 -0.074572489 0.31800002
0.064825945 -0.069289744 0.31900001
0.067725822 -0.069089398 0.31853575
0.072529249 -0.068855576 0.31764516
0.077611662 -0.068117172 0.31751117
0.082303211 -0.068153538 0.31795755
0.087241031 -0.068746798 0.31855893
0.090883888 -0.069043621 0.31890002
0.062449422 -0.070805877 0.3206667
0.094128773 -0.072317459 0.32000002
0.095296226 -0.071063548 0.32000002
0.059354059 -0.065445021 0.32300001
0.062871002 -0.067191713 0.32255319
0.067215241 -0.066601247 0.321706
0.072444297 -0.066357292 0.32110882
0.077085234 -0.065892197 0.32075864
0.082495257 -0.065537311 0.32028577
0.087720804 -0.066250466 0.31999996
0.092219338 -0.067131266 0.32040623
0.059620783 -0.064059734 0.32350001
0.06191314 -0.063676953 0.32359996
0.06807448 -0.063213915 0.32354835
0.072457291 -0.062393665 0.32322454
0.07743337 -0.062831186 0.32290387
0.082701288 -0.062963903 0.32234052
0.087558858 -0.062798046 0.32187274
0.09216176 -0.062302686 0.32245845
0.061076667 -0.07133691 0.32680002
0.060864579 -0.069429763 0.32680002
0.096961975 -0.066833265 0.32793754
