# .PCD v0.7 - Point Cloud Data file format
VERSION 0.7
FIELDS x y z
SIZE 4 4 4
TYPE F F F
COUNT 1 1 1
WIDTH 153
HEIGHT 1
VIEWPOINT 0 0 0 1 0 0 0
POINTS 153
DATA ascii
-0.066202179 -0.075650826 0.30369997
-0.062000562 -0.075612292 0.30266666
-0.059060659 -0.075919479 0.30320001
-0.066112444 -0.072853982 0.30365625
-0.062489927 -0.072817929 0.30300006
-0.059387021 -0.074422732 0.30328575
-0.065231577 -0.069317743 0.30400002
-0.063300975 -0.069440976 0.30399999
-0.052372962 -0.080822185 0.30840001
-0.075609282 -0.076828055 0.30900002
-0.072643831 -0.076622657 0.30740005
-0.06852331 -0.076084711 0.30500004
-0.056493435 -0.076825477 0.30603227
-0.053132623 -0.07788936 0.30810866
-0.075656995 -0.074633077 0.30900002
-0.071855381 -0.073306158 0.30762857
-0.068558939 -0.071983345 0.30548149
-0.06076758 -0.071630411 0.30535004
-0.057337664 -0.072554283 0.30697298
-0.05406275 -0.074097916 0.30812502
-0.070312686 -0.069956809 0.30900002
-0.067217089 -0.067422651 0.3067843
-0.062167455 -0.067214504 0.30598539
-0.058233347 -0.067751713 0.30808693
-0.066635631 -0.063344553 0.30868968
-0.062486283 -0.06282381 0.30810174
-0.059457086 -0.064612515 0.30900002
-0.079596601 -0.080253229 0.31400001
-0.050496802 -0.081436448 0.31128573
-0.048658628 -0.08140301 0.31323531
-0.077695079 -0.077295676 0.31138465
-0.051019005 -0.076907769 0.31176192
-0.048994835 -0.078557 0.31304768
-0.076426364 -0.072603747 0.31161541
-0.073697768 -0.07160423 0.31067997
-0.055586413 -0.070560187 0.31
-0.052875191 -0.072428502 0.31201857
-0.072117291 -0.067704499 0.31208569
-0.069534935 -0.065408036 0.31
-0.056190729 -0.066991232 0.31097373
-0.05373136 -0.068123549 0.31237501
-0.071205184 -0.063114405 0.3125
-0.068205543 -0.061514564 0.31096554
-0.060809828 -0.061123952 0.31058335
-0.057457499 -0.062659338 0.31242469
-0.067011505 -0.0581364 0.312875
-0.062385749 -0.057643019 0.31213161
-0.058676079 -0.058490723 0.31365395
-0.062515303 -0.054053374 0.31387508
-0.045218907 -0.085781068 0.3175
-0.044265591 -0.086268693 0.3186667
-0.081469692 -0.081105895 0.31555557
-0.079339333 -0.081019565 0.31500003
-0.046554986 -0.082593963 0.31574991
-0.044122275 -0.083090067 0.31783998
-0.082020573 -0.077749521 0.31666669
-0.046967309 -0.077544861 0.31643865
-0.081537358 -0.072772183 0.31774074
-0.078368403 -0.071457975 0.31588891
-0.050858434 -0.071731791 0.31562501
-0.048301086 -0.073168896 0.31727916
-0.077158123 -0.067722835 0.31754544
-0.074451916 -0.066566966 0.31550002
-0.052369345 -0.06745331 0.31708166
-0.076456182 -0.063946627 0.31864291
-0.073546246 -0.062071659 0.31709999
-0.055505373 -0.060636982 0.31525004
-0.053692751 -0.062856458 0.31646156
-0.072303742 -0.057648994 0.31730956
-0.068923518 -0.056464929 0.31568751
-0.056743097 -0.057164215 0.31661811
-0.054785192 -0.059430782 0.31700003
-0.070757084 -0.053389579 0.3187778
-0.067513205 -0.052596085 0.31715092
-0.058654934 -0.052814856 0.3172667
-0.041984811 -0.086972453 0.32102713
-0.042361047 -0.082138561 0.32247069
-0.03997976 -0.082029745 0.32300001
-0.04531594 -0.07704284 0.32000005
-0.044395104 -0.077892028 0.32225928
-0.085280776 -0.070790164 0.32250002
-0.083063528 -0.070995405 0.32062504
-0.04675005 -0.071751557 0.32116288
-0.04465805 -0.073196657 0.32275003
-0.085414685 -0.0695678 0.32350001
-0.081791267 -0.067604028 0.3220526
-0.079042092 -0.066739678 0.32000005
-0.050628006 -0.06665574 0.32037503
-0.04795517 -0.067553699 0.32236668
-0.044831686 -0.069675326 0.324
-0.081028387 -0.063569345 0.32300001
-0.077583112 -0.061877456 0.32058829
-0.051917303 -0.062101625 0.32172349
-0.049059194 -0.063076124 0.32322726
-0.076907843 -0.057519186 0.32117245
-0.073952369 -0.055917863 0.32042858
-0.055520263 -0.055497624 0.32000002
-0.053306144 -0.057937834 0.32223919
-0.081194356 -0.090922818 0.32800004
-0.085012861 -0.087287314 0.32700002
-0.082069047 -0.087745264 0.32799998
-0.079664789 -0.0851539 0.32900003
-0.079954475 -0.084895067 0.32800001
-0.040796082 -0.08068794 0.32533336
-0.039822496 -0.080677271 0.32600001
-0.042231329 -0.077543266 0.32595241
-0.039831448 -0.077282526 0.32655558
-0.043022316 -0.07311324 0.32695562
-0.039595239 -0.074637473 0.32850003
-0.085583381 -0.067112371 0.32614291
-0.08427158 -0.066742562 0.32550001
-0.04602313 -0.066068165 0.32615387
-0.044540506 -0.068176091 0.3271364
-0.085611679 -0.063175388 0.32753339
-0.083559796 -0.062845498 0.32714292
-0.047254484 -0.0624208 0.3270435
-0.075459853 -0.095113061 0.33400002
-0.05000633 -0.095383838 0.33400002
-0.080442011 -0.091120228 0.33000001
-0.077365302 -0.092122138 0.33227274
-0.074918292 -0.092405237 0.33400002
-0.05000633 -0.093217582 0.33400002
-0.077968396 -0.087689616 0.33184615
-0.078569233 -0.084877647 0.33000001
-0.041403305 -0.071654834 0.33071876
-0.039336089 -0.072853141 0.33080003
-0.042300571 -0.067520581 0.33137736
-0.043745358 -0.063128486 0.33227581
-0.0751426 -0.095669419 0.33500001
-0.072127908 -0.096211985 0.33658332
-0.069306284 -0.096934408 0.33881819
-0.060099345 -0.097636253 0.33900002
-0.05762177 -0.09659417 0.33829421
-0.052418988 -0.096033916 0.3355625
-0.075220197 -0.092293911 0.33500001
-0.072521687 -0.092777744 0.33701763
-0.069856018 -0.094475642 0.33900002
-0.056390714 -0.094144322 0.33830768
-0.052832481 -0.093493089 0.33596435
-0.075493976 -0.08780013 0.33581251
-0.073809743 -0.088741988 0.33796
-0.04103519 -0.066071443 0.33537504
-0.039954431 -0.065990612 0.33600003
-0.066955507 -0.096934482 0.34072223
-0.06285499 -0.097219907 0.3409583
-0.059493601 -0.095513418 0.34025002
-0.070481062 -0.090975821 0.34063637
-0.067793585 -0.092702799 0.34162256
-0.062426925 -0.093702681 0.34209999
-0.058725301 -0.093251847 0.34042111
-0.0719731 -0.088847429 0.34088239
-0.069780231 -0.089074798 0.34200001
-0.066477351 -0.092651516 0.34500003
