# .PCD v0.7 - Point Cloud Data file format
VERSION 0.7
FIELDS x y z
SIZE 4 4 4
TYPE F F F
COUNT 1 1 1
WIDTH 139
HEIGHT 1
VIEWPOINT 0 0 0 1 0 0 0
POINTS 139
DATA ascii
-0.0039311373 -0.065770447 0.28400001
0.0030359267 -0.065440193 0.28100002
0.0080595315 -0.06584689 0.28258336
0.011407761 -0.066296332 0.28381249
-0.0019968855 -0.062613584 0.28245315
0.0025832348 -0.062337041 0.28128955
0.0076322984 -0.0627691 0.28294203
0.011094053 -0.06409952 0.28400004
-0.0015483755 -0.058285415 0.28362861
0.0026123936 -0.058026541 0.28302994
0.0061809006 -0.059147295 0.28376922
0.021241523 -0.070114851 0.289
-0.0065389811 -0.066279709 0.28620005
-0.0047767828 -0.066833831 0.28500003
0.013878824 -0.066427186 0.28533334
0.017873229 -0.067121215 0.28735816
0.021122076 -0.068019934 0.289
-0.0061850366 -0.06327749 0.28751859
-0.0044770874 -0.06270884 0.28550002
0.0093946904 -0.060518287 0.28500003
0.012805779 -0.062267467 0.28572598
0.017045608 -0.063055865 0.28799996
-0.002282056 -0.056680162 0.28506675
0.0029740019 -0.055788554 0.28523532
0.0076753637 -0.057198148 0.28573769
0.011839914 -0.057890184 0.28772572
0.015540235 -0.05957137 0.289
-0.0014470228 -0.052986771 0.28719231
0.0025748939 -0.052643921 0.28718749
0.0071387235 -0.053029958 0.28809994
0.010338785 -0.054182481 0.289
-0.00078263355 -0.049965095 0.289
0.0024780354 -0.049262196 0.28900003
0.0061682528 -0.049965091 0.289
0.023526685 -0.070878707 0.29007143
0.026329163 -0.070783734 0.29130769
0.023269879 -0.067205243 0.29023638
0.026445251 -0.067469358 0.29187879
-0.0073005161 -0.060706146 0.29133335
0.01846768 -0.061214231 0.29028568
0.022251265 -0.062518343 0.29155719
0.025958477 -0.063587792 0.29338101
-0.0069462173 -0.058082871 0.2933948
0.01373181 -0.056124955 0.29038459
0.01762696 -0.05741135 0.29179227
0.02103143 -0.059047051 0.29346669
-0.0063577481 -0.054166485 0.294
-0.0028856599 -0.050890338 0.28999999
0.0088746408 -0.051105749 0.29028571
0.012632669 -0.052525327 0.29134795
0.016294735 -0.053023715 0.29341385
-0.0019593171 -0.047427516 0.29052001
0.0024041776 -0.046850089 0.29050004
0.0075011747 -0.04736381 0.29174671
0.012109823 -0.048135787 0.2930392
0.015094038 -0.049399421 0.294
-0.0016435712 -0.042771477 0.29316002
0.0023403727 -0.042834409 0.29301545
0.0063896109 -0.043939553 0.29355177
-0.015586295 -0.072643846 0.29857147
-0.013431666 -0.072104581 0.29734483
-0.013208938 -0.0698824 0.29800001
0.02958663 -0.066855431 0.29900002
0.024180461 -0.060462687 0.29500005
0.027601479 -0.061905328 0.29717389
-0.0082108257 -0.056559175 0.29518187
0.019769214 -0.055466823 0.29500002
0.023015492 -0.057242978 0.29578564
0.026695408 -0.057660494 0.29786843
-0.0069963238 -0.05293623 0.29646432
0.018340524 -0.052195292 0.2956
0.022249684 -0.052699026 0.29732826
0.025569661 -0.054430217 0.2985
0.013316234 -0.045953207 0.29603705
0.01725371 -0.047747109 0.2974219
0.020678511 -0.049038183 0.29833338
0.015997157 -0.044583391 0.29900002
-0.016059462 -0.070758455 0.30070004
-0.014773291 -0.070429042 0.30033335
-0.016054578 -0.067683719 0.30200002
-0.014274099 -0.06724225 0.30122229
0.02999513 -0.067189574 0.30000001
-0.015446573 -0.064634994 0.30400002
-0.013769654 -0.062984593 0.30323809
0.029717168 -0.061456598 0.30000001
0.030481566 -0.062846415 0.30000001
-0.013146277 -0.05978794 0.30400002
0.028884228 -0.056874 0.30087507
0.030353611 -0.05809655 0.30136371
0.024195379 -0.051074091 0.30126673
0.027561607 -0.052637938 0.30279696
0.030395065 -0.054037198 0.30400002
0.018865494 -0.045636166 0.30040005
0.022814581 -0.047352884 0.30225423
0.026094727 -0.048462313 0.30366668
-0.01228526 -0.081377923 0.30880004
0.02220309 -0.081367671 0.30857146
-0.012282276 -0.079279162 0.30838466
0.022090783 -0.079847962 0.30850002
-0.01531755 -0.062622167 0.30500007
-0.014013756 -0.060396731 0.30500001
-0.015762238 -0.057262484 0.30785722
-0.013559886 -0.057223473 0.30655888
-0.015901042 -0.054224528 0.30900002
-0.013350632 -0.053535245 0.30805558
0.029258693 -0.050629519 0.30500001
0.030356685 -0.051165272 0.30510005
-0.0024211321 -0.085228108 0.31357145
-0.010669095 -0.081520744 0.30999997
-0.0073573114 -0.082073234 0.31120837
-0.0036311778 -0.082813084 0.31343248
0.018872084 -0.081975594 0.31366673
0.020723619 -0.081624255 0.31050003
-0.010473619 -0.079230897 0.31
-0.0075546908 -0.078242414 0.31113333
-0.004553319 -0.078632556 0.31337503
-0.015709881 -0.051805716 0.31190911
-0.014023989 -0.051457953 0.31106669
-0.00068279117 -0.08510562 0.31500003
0.0025613257 -0.085942492 0.31585184
0.0076491893 -0.087066032 0.31782505
0.01263359 -0.087394334 0.31862798
0.016120102 -0.086079523 0.31733334
-0.0013066478 -0.082178973 0.31565619
0.0027028781 -0.082785062 0.31758067
0.0061956509 -0.084329538 0.31850001
0.014457751 -0.083684459 0.31850004
0.016902035 -0.082487665 0.31617242
-0.001997394 -0.078014195 0.3171429
0.0012126375 -0.07853464 0.31886372
0.017538279 -0.07920745 0.31536368
0.0091647878 -0.085833862 0.32000002
0.011091997 -0.085863516 0.32000005
0.0041491017 -0.080403097 0.32000002
0.0076244851 -0.082342416 0.32099998
0.011726973 -0.08254464 0.32134619
0.0032127262 -0.078126684 0.32019055
0.0067172935 -0.078895114 0.32192001
0.010954091 -0.07929226 0.32380003
