# .PCD v0.7 - Point Cloud Data file format
VERSION 0.7
FIELDS x y z
SIZE 4 4 4
TYPE F F F
COUNT 1 1 1
WIDTH 174
HEIGHT 1
VIEWPOINT 0 0 0 1 0 0 0
POINTS 174
DATA ascii
0.079491198 -0.025428312 0.21300001
0.082811236 -0.025805427 0.21392308
0.078082778 -0.023051651 0.21355698
0.08109419 -0.023498852 0.21376094
0.07870777 -0.019880187 0.21400002
0.073365457 -0.026734233 0.21743749
0.075879946 -0.02584138 0.21500002
0.084694847 -0.025965886 0.21500003
0.087973885 -0.026540259 0.217225
0.091586724 -0.026776154 0.21880768
0.073881432 -0.022912035 0.21751997
0.076237172 -0.02192192 0.21620592
0.083131529 -0.022187952 0.21533756
0.086830884 -0.022807632 0.21731508
0.09057232 -0.024582176 0.21900001
0.074584037 -0.019220201 0.219
0.077678859 -0.017686544 0.21779527
0.08205314 -0.017871518 0.21734402
0.085651152 -0.019124113 0.21858335
0.079493277 -0.014639444 0.21900001
0.081020191 -0.014781483 0.21900001
0.068886586 -0.030292848 0.22400001
0.071065813 -0.030555163 0.22400001
0.098650053 -0.03048683 0.22217654
0.10066872 -0.030463684 0.22333334
0.069078431 -0.028061422 0.22322582
0.070968829 -0.02729187 0.22096968
0.094132476 -0.026961394 0.2200689
0.09690585 -0.028079942 0.2216984
0.10012219 -0.029283945 0.22400001
0.069976203 -0.023654271 0.22400001
0.071546286 -0.022309631 0.22114615
0.089215629 -0.021670476 0.22045836
0.092497587 -0.022478547 0.22204043
0.09577027 -0.023636922 0.22373334
0.07274881 -0.017502068 0.22189921
0.075837217 -0.015919134 0.22000003
0.083915226 -0.01599374 0.22009523
0.087533534 -0.017153995 0.22115286
0.091531344 -0.018370599 0.22379999
0.073650204 -0.013978765 0.22321624
0.077276677 -0.012514728 0.22105257
0.082467116 -0.012553231 0.22088462
0.087114401 -0.013022074 0.22322662
0.077937223 -0.0085520158 0.2225142
0.082048051 -0.0085112434 0.22299999
0.064854547 -0.033093758 0.22900002
0.067002833 -0.031687245 0.2266407
0.070410207 -0.031117201 0.22500001
0.10200837 -0.030370969 0.2256
0.067603141 -0.027224122 0.22651191
0.098896988 -0.02605569 0.22540738
0.10115385 -0.027627805 0.22609675
0.068828478 -0.022884656 0.22800006
0.070344441 -0.021105623 0.2281429
0.094731949 -0.020476434 0.22500001
0.097858302 -0.022111211 0.2262125
0.1016027 -0.022792615 0.22851065
0.069516577 -0.018839501 0.22900002
0.0706679 -0.017035872 0.2276552
0.093357883 -0.01691171 0.2258689
0.097094439 -0.017479641 0.22788572
0.072253086 -0.012147256 0.22653189
0.07525935 -0.010854143 0.22500001
0.088401034 -0.010913139 0.22522219
0.092206217 -0.012782721 0.22708337
0.095779546 -0.014077278 0.22900002
0.073829591 -0.0078463387 0.22744288
0.076787345 -0.0064658858 0.22593552
0.082912877 -0.0061304807 0.22574462
0.087388866 -0.0074037262 0.22726598
0.09090431 -0.0082294233 0.22867864
0.063246012 -0.035691485 0.23288891
0.065420963 -0.035068281 0.23100001
0.10231822 -0.036814429 0.23316367
0.063899279 -0.032797966 0.23180355
0.065338567 -0.032133818 0.23
0.10206819 -0.034186445 0.23243999
0.064723112 -0.027755454 0.23309088
0.065797873 -0.027196676 0.23104994
0.064752907 -0.024899974 0.23400001
0.066799529 -0.022556163 0.23202774
0.10180955 -0.020620689 0.23
0.068278603 -0.01771893 0.23193745
0.070465378 -0.016482903 0.23000002
0.099312156 -0.016467333 0.23016667
0.10132847 -0.017959479 0.2306363
0.069655351 -0.013053628 0.2323077
0.070553705 -0.011082934 0.23141667
0.094199054 -0.01126044 0.23018183
0.097596288 -0.012045198 0.23196545
0.10101499 -0.012973784 0.23375008
0.07188338 -0.0072610509 0.23230137
0.093024813 -0.0070269881 0.23171425
0.096938923 -0.00845234 0.23375009
0.098772593 -0.04042897 0.23755558
0.10012861 -0.040036619 0.23600002
0.059315205 -0.037665412 0.23707144
0.061390929 -0.037412673 0.23653451
0.099184066 -0.037792396 0.2373455
0.10052206 -0.037441149 0.23540008
0.059068818 -0.032197069 0.23746426
0.061687287 -0.032237917 0.23634097
0.099708602 -0.033994347 0.23858336
0.10052466 -0.03415874 0.236375
0.062973976 -0.027688965 0.23686592
0.064348653 -0.022950524 0.2384444
0.065377511 -0.022054698 0.23669232
0.066293515 -0.01723236 0.23683609
0.10313371 -0.015480367 0.23500001
0.067947954 -0.012615632 0.23664373
0.10237163 -0.012917002 0.23500006
0.063213676 -0.041749373 0.24108514
0.066957466 -0.042720929 0.24336374
0.094325371 -0.042593755 0.24384998
0.09667822 -0.042040866 0.24239998
0.063105479 -0.039936908 0.24000001
0.066259183 -0.039646477 0.24300002
0.09481886 -0.039019994 0.24400002
0.097283728 -0.037433889 0.24213953
0.098352008 -0.033838093 0.24205412
0.061630949 -0.026395878 0.24021426
0.06283772 -0.022281053 0.24087498
0.063968785 -0.017687874 0.2418983
0.065380916 -0.015062755 0.2405
0.064447291 -0.013997051 0.24328573
0.066003248 -0.012197631 0.24162789
0.069584489 -0.045138735 0.245
0.073291086 -0.045739818 0.24805002
0.076055728 -0.046135239 0.24900007
0.093235038 -0.045765143 0.24700001
0.069289804 -0.042196214 0.24503841
0.072063811 -0.042683121 0.24742617
0.093435928 -0.042702679 0.24581392
0.09520746 -0.044741482 0.245
0.068626858 -0.039400946 0.24600001
0.071571805 -0.039220579 0.24805556
0.094231814 -0.038168721 0.2458846
0.095746696 -0.036180906 0.24566665
0.0965036 -0.033839725 0.24579999
0.059542503 -0.027192155 0.24712503
0.060587391 -0.026865069 0.24676472
0.059029475 -0.022423834 0.24832356
0.061037961 -0.022107746 0.24734887
0.059134021 -0.018101897 0.24800007
0.061664727 -0.017118085 0.24692427
0.087895073 -0.050205298 0.25381818
0.09011174 -0.050304696 0.25300002
0.078389317 -0.046080574 0.25018185
0.082681298 -0.04720116 0.25256345
0.087540857 -0.047483146 0.25382408
0.091332786 -0.047264941 0.25245908
0.074450165 -0.041887078 0.25
0.077620566 -0.042316936 0.25115386
0.081884153 -0.042734243 0.25309804
0.088340029 -0.044360124 0.25399998
0.092104763 -0.042676281 0.25295454
0.074100651 -0.038919359 0.25018752
0.077750616 -0.03838113 0.25273082
0.080926761 -0.036912531 0.25399998
0.093989886 -0.037763365 0.25293943
0.09517809 -0.035882883 0.25214288
0.094171733 -0.03417911 0.25323078
0.095341302 -0.034148693 0.25115386
0.08386533 -0.041565262 0.25557148
0.087534219 -0.042407852 0.25653675
0.091269024 -0.040907044 0.25571436
0.082976803 -0.038061284 0.25557995
0.087835096 -0.037723869 0.25844741
0.091834061 -0.037356369 0.25610667
0.089764997 -0.034073085 0.25850004
0.091954067 -0.033770461 0.25673911
0.088515654 -0.035592284 0.26000002
0.088750534 -0.03417097 0.26000002
