# .PCD v0.7 - Point Cloud Data file format
VERSION 0.7
FIELDS x y z
SIZE 4 4 4
TYPE F F F
COUNT 1 1 1
WIDTH 171
HEIGHT 1
VIEWPOINT 0 0 0 1 0 0 0
POINTS 171
DATA ascii
0.049996171 0.029329285 0.12400001
0.053513218 0.028940672 0.12400004
0.057326399 0.029008502 0.12385473
0.062869608 0.028667815 0.12328397
0.053356744 0.030090442 0.12400001
0.057366934 0.030199829 0.12400004
0.06212445 0.030485958 0.12399994
0.065190554 0.030521285 0.12400001
0.043953191 0.028267564 0.12872319
0.047188405 0.028955486 0.12615502
0.051540095 0.029030532 0.125
0.057781648 0.028594494 0.12533334
0.060200483 0.028882978 0.126
0.043836132 0.031650763 0.12857829
0.047754515 0.032349985 0.12706374
0.052515108 0.03247866 0.12610851
0.057578281 0.032828536 0.12625469
0.062525831 0.033003308 0.1255707
0.065796614 0.033130225 0.12570488
0.049207464 0.036418781 0.12855773
0.052524906 0.036324888 0.12859373
0.057124615 0.036603071 0.12854423
0.062728629 0.036730189 0.128077
0.066390038 0.037128892 0.12816553
0.04465143 0.024796965 0.1337143
0.045337148 0.024850411 0.134
0.044121567 0.026174527 0.13157897
0.045681551 0.026636643 0.1317222
0.044355355 0.034115981 0.13016672
0.045703407 0.033943389 0.13050003
0.044331342 0.037473429 0.13170831
0.047281906 0.037655722 0.13131189
0.052784141 0.038687471 0.13020669
0.057675213 0.038948663 0.13007224
0.0617355 0.038877372 0.13019449
0.06690865 0.039643079 0.13000005
0.044540923 0.041208312 0.13318516
0.04769209 0.04157478 0.13324593
0.052508213 0.042293753 0.13252993
0.057288382 0.042420119 0.13240322
0.062457379 0.042247165 0.13219315
0.067370892 0.042643316 0.13221237
0.070163719 0.043869834 0.13325001
0.053828962 0.045129344 0.13400003
0.056128442 0.045129344 0.13400002
0.064057052 0.045274202 0.13400003
0.066909574 0.045553036 0.1339827
0.070345424 0.045339376 0.13400002
0.047967441 0.019623777 0.13820001
0.044384446 0.023347126 0.13691233
0.04568452 0.023173708 0.13739689
0.044189155 0.025832757 0.13594118
0.046388377 0.025718357 0.13566667
0.044122431 0.037983034 0.13655882
0.043934457 0.042663634 0.13702227
0.047322672 0.044244032 0.13572374
0.050491199 0.044517584 0.13500001
0.059794262 0.044955373 0.13500001
0.062760875 0.044471499 0.13500001
0.044145145 0.046691168 0.13865115
0.047652107 0.047112897 0.13751972
0.052362408 0.047561601 0.13628499
0.057632376 0.047658086 0.1361618
0.062475413 0.047465522 0.13593329
0.067451902 0.048110075 0.13611186
0.07134366 0.048433293 0.13711117
0.046675671 0.019503096 0.14323078
0.044864506 0.020961039 0.14229999
0.046681631 0.021001523 0.14136237
0.044826873 0.019601954 0.14500001
0.047570534 0.018337037 0.1475367
0.050271269 0.017767005 0.14900002
0.048806317 0.022012368 0.14574999
0.05059367 0.023340445 0.14666665
0.044891622 0.029061217 0.14766668
0.045034397 0.029246531 0.148
0.053076863 0.026420765 0.14893942
0.055002525 0.025699407 0.14900002
0.04485549 0.030410526 0.149
0.04505007 0.030557625 0.14825
0.054212302 0.031657871 0.14839999
0.056405116 0.032233171 0.14832692
0.0639899 0.032874811 0.14899999
0.067312241 0.032982346 0.14900008
0.072805837 0.032575876 0.14864285
0.077055208 0.031935796 0.14858672
0.078810789 0.0095365765 0.15400004
0.080237128 0.0097484477 0.15400001
0.048336804 0.014315588 0.15309997
0.050381757 0.014307928 0.1534286
0.079203412 0.011742289 0.15372975
0.080321752 0.011845948 0.15320589
0.048204795 0.016637374 0.15111117
0.05107047 0.018071517 0.15148386
0.079490721 0.017217895 0.15153335
0.08007066 0.015325154 0.15400001
0.049250565 0.021437809 0.15075001
0.051924702 0.022605054 0.15126669
0.055853117 0.02404101 0.15319356
0.078963771 0.024899015 0.15000001
0.044913318 0.029033713 0.15000001
0.053361911 0.027761543 0.15169491
0.05612975 0.028307447 0.1516491
0.066919617 0.029745519 0.15400004
0.072388507 0.029642425 0.15379161
0.078392938 0.028505225 0.15195331
0.053173192 0.030695936 0.152
0.058204781 0.031396005 0.15191308
0.062437538 0.031739172 0.15205342
0.067539521 0.031223038 0.15188755
0.072471119 0.031464607 0.15194033
0.076558217 0.030893369 0.15166673
0.053060159 0.0097686425 0.15700004
0.055664569 0.0097686406 0.15700001
0.063713461 0.0099593671 0.156
0.068174139 0.0098870983 0.15599997
0.072731145 0.0095247319 0.1552334
0.076678321 0.0092001921 0.15500006
0.081595898 0.009895524 0.155
0.048627451 0.012453965 0.15584272
0.052746985 0.012240081 0.15722597
0.057483751 0.012445592 0.15743382
0.062549293 0.012470798 0.15718113
0.067458227 0.012563144 0.15661222
0.072603092 0.012667267 0.15673339
0.077160098 0.012920362 0.15577048
0.08067438 0.013791057 0.155
0.053565763 0.016684256 0.15833874
0.057539575 0.015894335 0.15900014
0.061988208 0.015599283 0.15899995
0.067550108 0.016241644 0.15897793
0.072602898 0.016044514 0.15860979
0.077739678 0.016443664 0.15766163
0.080348521 0.016935982 0.15587501
0.05388093 0.021194333 0.15641937
0.056490023 0.023514975 0.15685716
0.053919066 0.028153447 0.15609306
0.057952691 0.028009433 0.15680364
0.062842213 0.028830696 0.15690091
0.067593306 0.028549781 0.1572717
0.072505161 0.028325733 0.15696439
0.077462941 0.028142989 0.15670958
0.080092251 0.027166389 0.15900001
0.052310292 0.031590261 0.15732257
0.057176523 0.030264005 0.15676925
0.062310919 0.030152295 0.15500003
0.068024367 0.0300769 0.15499999
0.076653183 0.030085279 0.155
0.045601413 0.036689658 0.15507691
0.054912206 0.018732753 0.16000003
0.057688601 0.018484773 0.16080308
0.062816702 0.017974036 0.160825
0.067521326 0.018614376 0.16061528
0.072474279 0.018464958 0.16019008
0.077280626 0.01885104 0.16022573
0.081130989 0.019084431 0.16113336
0.058026254 0.021809634 0.16170476
0.062496562 0.022440311 0.16332389
0.067459039 0.022550886 0.16283618
0.072607271 0.022650842 0.16218889
0.077576138 0.022621321 0.16182941
0.081491783 0.022447577 0.16195084
0.058673948 0.026434798 0.16035002
0.062421989 0.026788471 0.16201258
0.067389064 0.026197037 0.1616153
0.072618708 0.026353417 0.16171649
0.077585287 0.026135441 0.16107503
0.080655925 0.026024476 0.16206667
0.053823482 0.033923417 0.16108334
0.063851774 0.02305478 0.16500001
0.063740306 0.025828272 0.16499999
