# .PCD v0.7 - Point Cloud Data file format
VERSION 0.7
FIELDS x y z
SIZE 4 4 4
TYPE F F F
COUNT 1 1 1
WIDTH 203
HEIGHT 1
VIEWPOINT 0 0 0 1 0 0 0
POINTS 203
DATA ascii
0.0028226741 -0.02012386 0.20700002
0.0074438537 -0.020155089 0.20675002
0.011561022 -0.020141969 0.20833331
0.0030358431 -0.017665613 0.20734899
0.0075104325 -0.017346423 0.20689128
0.011195472 -0.017923623 0.20857814
0.0044128112 -0.013241976 0.20875005
0.0071348762 -0.013417169 0.20869441
0.010504193 -0.014332451 0.20900002
-0.0020005812 -0.021401925 0.21314709
0.00048227288 -0.02058306 0.21025002
0.014298728 -0.020787094 0.21021432
0.017878382 -0.021484436 0.21195087
0.020770801 -0.022376774 0.21395838
-0.0014299452 -0.018178774 0.21247277
0.0012479507 -0.016338894 0.2102308
0.013420167 -0.01706052 0.21065855
0.016973281 -0.017871393 0.21265051
0.020008564 -0.01999585 0.21400002
-0.00020253369 -0.014445572 0.21275002
0.0022015688 -0.012280806 0.21157897
0.00801971 -0.01130518 0.21043643
0.012129478 -0.012782967 0.21190098
0.015828094 -0.014401489 0.21376926
0.0029971881 -0.0081795752 0.21262334
0.0073850676 -0.0076541887 0.21249996
0.011122598 -0.0089384681 0.21388894
0.0066883406 -0.0039173262 0.21381406
0.02817354 -0.025781151 0.21881481
0.030418789 -0.025552776 0.21900003
-0.0058711809 -0.022598727 0.21805261
-0.0040903292 -0.022353647 0.21580003
0.023163475 -0.022182316 0.21625841
0.026941778 -0.023408638 0.21833786
0.030418787 -0.024724213 0.21900001
-0.0028900725 -0.01688447 0.21582356
0.019165942 -0.016760571 0.21570005
0.022211952 -0.017840264 0.21722314
-0.0024077948 -0.012722368 0.21767052
0.014091672 -0.011228953 0.21548492
0.017665543 -0.012404321 0.21671788
0.020988315 -0.013623927 0.21819998
-0.001095766 -0.0084820278 0.21853121
0.0017693179 -0.0063971956 0.21607697
0.009469403 -0.0054475954 0.215
0.012740345 -0.0071811168 0.21625996
0.016572041 -0.0079277055 0.21815588
-0.00011960485 -0.0035367268 0.21900003
0.002593189 -0.0026246777 0.21750489
0.0078976341 -0.0018700258 0.21601205
0.012055697 -0.0029953872 0.21824487
0.015623055 -0.0047203852 0.21900003
0.0036607045 0.0013754554 0.21899995
0.0072886944 0.0019054811 0.2183883
-0.011319291 -0.026210167 0.22300005
-0.0086368388 -0.026007213 0.2218519
0.02895245 -0.026888244 0.22000001
0.031753737 -0.027347859 0.22288461
-0.010762167 -0.023314113 0.22327781
-0.0081814677 -0.022553271 0.22104351
0.028326845 -0.021342883 0.22057141
0.031166552 -0.022131767 0.22220835
-0.0062188455 -0.017634744 0.22157629
-0.004768311 -0.016401213 0.22050002
0.024559027 -0.016489569 0.22018752
0.027282011 -0.017668765 0.2219246
0.030727059 -0.019069184 0.22383335
-0.0057529896 -0.013657682 0.22336364
-0.0044007795 -0.012173585 0.22000001
0.019856116 -0.01021163 0.22000001
0.023057858 -0.012262083 0.22129349
0.026057059 -0.013377836 0.22332355
-0.0027937803 -0.0071498496 0.22159015
0.018786795 -0.0069240965 0.22059189
0.021778867 -0.0081292419 0.22272968
-0.0016790694 -0.0026778702 0.22217186
0.00052215828 -0.00072310882 0.22020002
0.013943318 -0.0013533527 0.22013332
0.017173026 -0.0029877692 0.22155812
0.020362416 -0.00458602 0.22400001
-0.00060556445 0.0019608554 0.22340743
0.002043033 0.0030996013 0.22140628
0.0086862436 0.0033575916 0.22019437
0.012418676 0.0023660136 0.22153912
0.015649404 0.00060740387 0.22360002
0.029845124 -0.031316765 0.22900002
0.03165539 -0.031431168 0.22769451
-0.015500735 -0.027219005 0.22850001
-0.013300659 -0.027375728 0.22624446
0.029413072 -0.029647028 0.22866669
0.032553293 -0.028055765 0.22557892
-0.011348853 -0.02118128 0.22611538
-0.0095149558 -0.02035334 0.22566669
0.032863028 -0.021514321 0.22546153
-0.011077415 -0.018126315 0.22820006
-0.0091071958 -0.01713969 0.22754292
0.029421795 -0.015970249 0.22512496
0.032029968 -0.017185092 0.22683825
-0.0072390428 -0.012152765 0.22655931
0.028041037 -0.012116291 0.22605132
0.030905988 -0.01253452 0.2281042
-0.0060851076 -0.0077423574 0.22676471
-0.0048227734 -0.0060233814 0.2254286
0.023776185 -0.0068146982 0.22540911
0.027209511 -0.0081457831 0.22757141
0.030941378 -0.0094535584 0.22900002
-0.0053988285 -0.0042109182 0.22825003
-0.0039540804 -0.0025937692 0.22583333
0.018785665 -0.0013376584 0.22544824
0.022187777 -0.0025449905 0.22678944
-0.010893381 -0.035439193 0.23344445
0.024913879 -0.035144296 0.23400001
0.026676456 -0.035439983 0.2325455
-0.016251557 -0.031719457 0.23248382
-0.012496009 -0.032655008 0.23308499
-0.0099927001 -0.033310436 0.23400001
0.024913879 -0.034195747 0.23400001
0.027631482 -0.032831211 0.23199999
0.030082006 -0.033424735 0.23
-0.016546529 -0.029221613 0.23152633
-0.010735682 -0.02978993 0.23366669
0.028032262 -0.029753089 0.23220001
-0.014166312 -0.020726362 0.23400001
-0.015557516 -0.019293001 0.234
-0.012124719 -0.016848216 0.23109095
-0.0098218843 -0.015150997 0.23
-0.011628579 -0.012624108 0.23170683
-0.0095451083 -0.011893285 0.23061904
0.032878943 -0.01190826 0.23166664
-0.010637945 -0.0080629569 0.23358333
-0.0086351642 -0.0069750277 0.23225002
0.028239189 -0.0059191897 0.23075603
0.031749297 -0.0079786601 0.23209299
-0.010372119 -0.0044113337 0.23400001
-0.0073921285 -0.0029166667 0.23233335
-0.010035403 -0.035675526 0.23500001
-0.007085802 -0.036787935 0.23767698
-0.0035275691 -0.037783414 0.23900005
0.022751652 -0.037022784 0.23759334
0.025291128 -0.036555924 0.23575002
-0.010035403 -0.031103034 0.23500001
-0.0074880077 -0.032629158 0.23768662
-0.0047324062 -0.033521645 0.23899999
0.023541665 -0.032700583 0.23748341
0.02593678 -0.031332348 0.23554175
-0.016878266 -0.025325615 0.23800002
-0.010035403 -0.029959913 0.23500001
-0.0065775895 -0.029032385 0.2382333
-0.0047808466 -0.027757186 0.23900001
0.024229007 -0.029235682 0.23810001
0.026117062 -0.029268598 0.23557144
-0.016383646 -0.023390668 0.23805399
-0.014988934 -0.020814937 0.23500001
-0.015815625 -0.017158628 0.23700003
-0.014436225 -0.017228276 0.23672728
-0.015609249 -0.014947932 0.23866668
-0.013678718 -0.011116821 0.2366522
-0.011976947 -0.0080350488 0.2359546
-0.00052045588 -0.040453665 0.2404286
0.002875678 -0.04101295 0.24259573
0.0054056155 -0.041789427 0.24400002
0.01858931 -0.040553223 0.24260004
0.020188393 -0.0402987 0.24100001
-0.0012290103 -0.037132159 0.24039334
0.0016847741 -0.037587695 0.24282819
0.018710388 -0.037684325 0.24269094
0.020663766 -0.0376288 0.24031579
-0.0025317259 -0.032679003 0.24162996
0.00050917506 -0.034384824 0.24375001
0.01959898 -0.033233851 0.24399999
0.021258825 -0.032399386 0.24211362
-0.0025892344 -0.028337004 0.24225
0.00039407419 -0.026737612 0.24383335
0.022178546 -0.029484088 0.24225001
0.0094770594 -0.04510672 0.24700001
0.011088671 -0.045143243 0.24720001
0.004633259 -0.040371671 0.245
0.0075895502 -0.04231004 0.24639133
0.012364403 -0.04246442 0.24714883
0.01601392 -0.041924868 0.24633338
0.0037913404 -0.036957424 0.24563412
0.0070927963 -0.03792287 0.2478421
0.012870979 -0.038204286 0.24826866
0.016267011 -0.037035722 0.24619228
-0.00057525991 -0.030983591 0.24511112
0.002386769 -0.032424141 0.24716489
0.0056227646 -0.033995293 0.2488182
0.017944884 -0.032619782 0.24633844
0.020126214 -0.030043038 0.245
-0.00072976551 -0.028783318 0.24514288
0.0008508648 -0.028747864 0.24646154
0.018882193 -0.029624773 0.2466667
0.02052347 -0.029447155 0.245
0.0086656231 -0.036003079 0.25
0.01187392 -0.03606699 0.25011539
0.0040184306 -0.030453481 0.25
0.0076533863 -0.032261301 0.25108513
0.012436192 -0.032652128 0.25231817
0.015932009 -0.031532507 0.25142306
0.0033601958 -0.028143892 0.25021279
0.0072354698 -0.027988372 0.25208449
0.012127588 -0.028629757 0.25393021
0.015866565 -0.029316263 0.25244445
