# .PCD v0.7 - Point Cloud Data file format
VERSION 0.7
FIELDS x y z
SIZE 4 4 4
TYPE F F F
COUNT 1 1 1
WIDTH 192
HEIGHT 1
VIEWPOINT 0 0 0 1 0 0 0
POINTS 192
DATA ascii
-0.0064091738 0.018746724 0.14856246
-0.0025349315 0.018587872 0.14807917
0.0024597077 0.018863512 0.14801712
0.0075826417 0.01871697 0.14806105
0.01272402 0.018770782 0.14811806
0.0176106 0.018587479 0.14785206
0.022520499 0.018470611 0.14801313
0.02628229 0.018274736 0.14836551
-0.0062381048 0.021778183 0.14868256
-0.0023410614 0.021470394 0.14866967
0.0032946267 0.021321341 0.14865002
0.0072843409 0.021670708 0.14863575
0.012569583 0.020865941 0.14871798
0.01782348 0.020969661 0.14870517
0.02243086 0.020977838 0.14892316
0.025987523 0.021030106 0.14886369
0.029165547 0.014538867 0.1534286
0.030279819 0.014376283 0.15400003
-0.0076600034 0.017278573 0.1519143
-0.0031221402 0.017359272 0.15000001
0.0011341665 0.018088926 0.15000001
0.0098899966 0.017845707 0.15000001
0.010469034 0.018516278 0.15016668
0.021929264 0.017359272 0.15000001
0.028853413 0.017395202 0.15122767
0.030226579 0.016779408 0.1526875
-0.0056708427 0.023165883 0.15074362
-0.0023837867 0.023270145 0.15116665
0.0021301655 0.023420151 0.15111113
0.0074755643 0.023475511 0.15025458
0.012390196 0.023029845 0.15137692
0.017442299 0.023382975 0.15074182
0.022598036 0.023224654 0.15030983
0.027604233 0.022811636 0.15160498
0.030104963 0.021354079 0.15283334
-0.0055557694 0.027075747 0.1513889
-0.0019962918 0.027087862 0.15267777
0.0029799836 0.026668085 0.15291351
0.0074202484 0.027351258 0.15217182
0.012468975 0.026938422 0.15301338
0.017732991 0.027311066 0.15283778
0.022382332 0.02739742 0.15245758
0.026632855 0.026917703 0.15317433
-0.0054277568 0.03035729 0.15400003
-0.0015355062 0.030400988 0.15400003
0.0063110739 0.030418327 0.15400003
0.018244117 0.030057644 0.15400003
0.0226204 0.030760517 0.15400001
-0.0086487308 0.013906544 0.15837207
0.029135399 0.012839447 0.15663271
0.030200051 0.013275452 0.15636364
-0.0077783582 0.016022028 0.15673685
0.029739222 0.022210434 0.155
0.030287448 0.021213107 0.15566668
-0.003310642 0.028340168 0.15530652
0.0019428899 0.028680772 0.15570001
0.0085441656 0.029750179 0.155
0.012399012 0.028873835 0.1555095
0.015826095 0.029125353 0.15578572
0.024670839 0.029498857 0.155
0.027993588 0.028540201 0.15598081
-0.0057974453 0.032722805 0.15645717
-0.0026072792 0.032607291 0.15637261
0.0025450345 0.032379664 0.15738173
0.0076799071 0.032637142 0.15622784
0.012524925 0.032458287 0.15685177
0.017443413 0.032494098 0.15679896
0.022350362 0.032684561 0.15618867
0.026782863 0.032172751 0.15715602
-0.0055664978 0.036573339 0.15865
-0.0028340821 0.036870349 0.15817083
0.0019293353 0.035973337 0.15882757
0.0073964801 0.036787804 0.15828814
0.012312499 0.036814757 0.15862197
0.017324353 0.036335107 0.15879107
0.022442637 0.036368024 0.15860564
0.025717935 0.036174912 0.15893331
-0.0064984732 0.0097802849 0.16373336
-0.0044978559 0.0095538637 0.1638
0.029035356 0.0090726996 0.16387099
0.030225065 0.0096723503 0.164
-0.0070003746 0.012469578 0.16261922
-0.0044454061 0.01226317 0.1624286
0.029110035 0.010935585 0.16196001
0.030292455 0.011009556 0.16200002
-0.0065044742 0.016447611 0.16218187
-0.0042091445 0.016836418 0.16282147
0.0066505363 0.019128039 0.163
0.0010953147 0.034596544 0.16011113
0.02821565 0.033928063 0.16014288
0.002437742 0.037849307 0.16152671
-0.0080390247 0.0047607627 0.16900001
0.02894116 0.0043907985 0.16835715
-0.0073251254 0.0077161458 0.16717312
-0.0044948137 0.0092390822 0.16522223
0.029119717 0.0065897559 0.1668929
0.030292973 0.0082090199 0.16583335
-0.0069030537 0.011733432 0.1650909
-0.0038425911 0.013786471 0.16675998
-0.0063586454 0.017969748 0.16600001
-0.0036445237 0.016128398 0.16708335
0.005728866 0.019095201 0.16500001
0.029874284 0.034344938 0.16500001
-0.007410787 0.0031930679 0.17151426
0.028748112 0.0024795583 0.17322442
-0.0059326375 0.0063252454 0.17183872
0.027956605 0.005153954 0.17300001
-0.0033670482 0.013821336 0.17179999
-0.0029921026 0.017279703 0.17224137
-0.0064480635 -0.00073178328 0.17865515
0.028167343 -0.00092071062 0.17864512
-0.0068792948 0.0014993062 0.17804442
0.02804203 0.0010958335 0.17677276
-0.0052693309 0.0069847121 0.17725
-0.0024902739 0.018904289 0.17678572
0.0027626918 0.019424569 0.1787391
0.0084699318 0.019673152 0.17850001
0.012494528 0.019125998 0.17860655
0.016289614 0.019576767 0.17900001
0.023484206 0.019627003 0.17900001
0.027166387 0.018658495 0.17876469
-0.0011846706 0.020265978 0.17887501
0.0026264233 0.020182725 0.17808695
0.0079614837 0.020103829 0.17808335
0.01241103 0.020117857 0.17795652
0.016404435 0.02013492 0.17900001
-0.0051926072 -0.00095231459 0.18000002
-0.0022965258 -0.0013587535 0.18028103
0.0026212642 -0.0015102902 0.18109883
0.007596828 -0.0015474209 0.18102077
0.012600525 -0.0015249117 0.18093401
0.017407695 -0.0017208096 0.18069232
0.022407839 -0.0017084439 0.18064864
0.026245069 -0.0014437021 0.17999998
-0.0055447859 0.0030090061 0.18022218
-0.0024445017 0.0024671643 0.18191648
0.002729076 0.0021664358 0.18248531
0.0076002553 0.0024098628 0.18271114
0.012492104 0.0024335929 0.18248887
0.017446259 0.002336618 0.18263853
0.022649275 0.0020705881 0.18237242
0.026305953 0.002672429 0.18217242
-0.0053992234 0.0055701868 0.18072729
-0.0034571739 0.0068274783 0.18280818
0.0031253851 0.0056308354 0.18400002
0.0081753237 0.0053866692 0.18393752
0.011568993 0.0055959574 0.18391307
0.016420465 0.0054443693 0.18400002
0.021579381 0.0051833158 0.18400002
0.026582569 0.0055140154 0.18387502
-0.0025452725 0.014610022 0.18333335
-0.0018200763 0.017639995 0.18153232
0.0030892061 0.018449161 0.18214588
0.008307403 0.01902158 0.1824286
0.012190134 0.017395709 0.18203615
0.01771575 0.018228522 0.18146995
0.022327965 0.018001905 0.1827594
0.026595473 0.017667431 0.18214516
-0.00064412237 0.020473726 0.18333337
0.0029279278 0.020286288 0.18185715
0.005710497 0.020331085 0.18222223
0.021157507 0.020145599 0.18171431
-0.00010103606 0.0049115173 0.185
0.0015214117 0.0045016953 0.18539999
0.017763741 0.0048115277 0.185
0.022158941 0.0040627932 0.18511997
0.025096297 0.0049115173 0.185
-0.001695781 0.0080991238 0.18567716
0.0024652516 0.0076965555 0.18666673
0.0074511738 0.0077307713 0.18680148
0.012638805 0.007729257 0.18644701
0.017635688 0.0075544068 0.1865903
0.022566354 0.00752718 0.1865894
0.026316136 0.0075915847 0.18613894
-0.001960793 0.012371128 0.18766168
0.0024770731 0.012336224 0.18839608
0.0074052592 0.012407371 0.18866639
0.012460301 0.012444042 0.188054
0.01751042 0.012384652 0.18798813
0.022521295 0.012508429 0.187861
0.026311385 0.012454914 0.18787642
-0.00064194354 0.017206259 0.18791233
0.0026914333 0.016717173 0.18768799
0.0072075152 0.017038146 0.18764216
0.012992004 0.015806528 0.18706782
0.017327985 0.016214678 0.18683746
0.022876706 0.01572901 0.18614888
0.026453257 0.015937686 0.18616213
-0.00055207231 0.020264518 0.1855
0.013451557 0.010281544 0.19000001
0.027840605 0.013440063 0.19056252
0.00559563 0.016905166 0.19000001
