# .PCD v0.7 - Point Cloud Data file format
VERSION 0.7
FIELDS x y z
SIZE 4 4 4
TYPE F F F
COUNT 1 1 1
WIDTH 129
HEIGHT 1
VIEWPOINT 0 0 0 1 0 0 0
POINTS 129
DATA ascii
0.069403999 -0.081778236 0.30844447
0.072348729 -0.08156547 0.307091
0.07780955 -0.081302404 0.30772004
0.082170047 -0.081450343 0.30828005
0.085256532 -0.081647463 0.30900002
0.069474146 -0.07972686 0.30900002
0.072803833 -0.078387827 0.30857775
0.07750877 -0.078584991 0.30864286
0.082019888 -0.079115607 0.30900002
0.085256532 -0.079977371 0.30900002
0.068169199 -0.081668161 0.31276476
0.088079542 -0.081793219 0.31153333
0.092515282 -0.082318529 0.3134906
0.095274426 -0.082561314 0.31400007
0.068882369 -0.078000344 0.31246668
0.071807332 -0.076148741 0.31082356
0.077664047 -0.076157004 0.31
0.082753047 -0.076800264 0.31081399
0.087311625 -0.077638596 0.31294993
0.091445312 -0.079058729 0.31376931
0.072936498 -0.072742499 0.31257805
0.077521473 -0.072368346 0.31147078
0.082081385 -0.072583482 0.31199995
0.085363247 -0.074143611 0.31400001
0.073236577 -0.069191113 0.31400004
0.077367201 -0.068750709 0.31382766
0.08085376 -0.069270462 0.31400001
0.064653531 -0.087048411 0.31900001
0.066593498 -0.086814649 0.31710711
0.098044433 -0.08619336 0.31540909
0.10090585 -0.086711407 0.31643748
0.064998358 -0.082713418 0.31900001
0.066514283 -0.082639463 0.31655174
0.098001242 -0.082318619 0.31543237
0.10125245 -0.083462588 0.31719995
0.064998351 -0.079462186 0.31900001
0.067282878 -0.077465914 0.31692496
0.089011505 -0.075861707 0.31550005
0.092886828 -0.077065691 0.31679252
0.097204208 -0.078103207 0.31725535
0.10017084 -0.078772523 0.31900001
0.069417864 -0.073246047 0.31631252
0.070300117 -0.071722105 0.31536368
0.08440204 -0.07078626 0.31557146
0.087692469 -0.072535895 0.31647173
0.090792589 -0.072291501 0.31847373
0.072649509 -0.067407623 0.31670365
0.077383675 -0.066309839 0.31594732
0.082564548 -0.067206986 0.31618181
0.086964257 -0.068254307 0.31824335
0.090343237 -0.069634572 0.31900001
0.073577486 -0.063960724 0.31871435
0.077266254 -0.063490465 0.31850007
0.081849113 -0.064137883 0.31854996
0.063531362 -0.091128416 0.32369229
0.062975548 -0.087346978 0.32197371
0.064291537 -0.083080091 0.32122228
0.064572424 -0.078343593 0.324
0.066155531 -0.076714084 0.32278946
0.093739629 -0.075041495 0.32000002
0.098323829 -0.075944267 0.3210527
0.10143001 -0.077866077 0.32152632
0.068126351 -0.072866336 0.32290909
0.093602657 -0.072549842 0.32125008
0.097419307 -0.072618276 0.32294005
0.10020778 -0.073201768 0.32380003
0.069447763 -0.069428526 0.32366669
0.071139447 -0.06566035 0.32075003
0.08833617 -0.066269912 0.32033342
0.092420809 -0.067185372 0.32148084
0.096351802 -0.068374254 0.32354164
0.072561376 -0.061922405 0.32095453
0.077939846 -0.060881723 0.32022229
0.082861483 -0.061825722 0.32104886
0.087408207 -0.06244836 0.32178935
0.091989301 -0.062849723 0.32348573
0.095436722 -0.064421825 0.324
0.059188206 -0.092031285 0.32690912
0.061659724 -0.09247674 0.32555878
0.059243023 -0.08837644 0.32854548
0.061010715 -0.087274551 0.32696158
0.062735334 -0.082573779 0.32653338
0.063905716 -0.078685999 0.32800001
0.065166943 -0.076740995 0.32500002
0.066986367 -0.072248772 0.32682148
0.10151041 -0.071900457 0.32644448
0.068895243 -0.067785494 0.32697061
0.07012479 -0.065876678 0.32600001
0.098295882 -0.067388609 0.32639289
0.10124205 -0.067535751 0.32834622
0.097587243 -0.096402079 0.33384621
0.097988941 -0.093968675 0.33339998
0.059499294 -0.085943997 0.33040005
0.060283646 -0.085412726 0.33000001
0.059839096 -0.084737897 0.33050001
0.061266512 -0.083401367 0.33024999
0.06323114 -0.077039957 0.33133337
0.065099351 -0.075513765 0.33000001
0.064149305 -0.073516771 0.33258832
0.065830745 -0.071869232 0.33144441
0.10380337 -0.070787244 0.33000001
0.066941701 -0.067446113 0.33185714
0.10354587 -0.067465916 0.33013633
0.094908044 -0.095987231 0.33900002
0.096240543 -0.097202487 0.33664998
0.096816048 -0.093945794 0.33638462
0.064044796 -0.071441598 0.33592311
0.086937182 -0.10576966 0.34400001
0.069828525 -0.10040508 0.34
0.072836198 -0.1011588 0.34088895
0.077387318 -0.10147221 0.3417941
0.082762681 -0.10227318 0.34360787
0.088401951 -0.10346577 0.34399998
0.092352822 -0.10211409 0.34309316
0.095193408 -0.10071843 0.34200001
0.069828525 -0.098843083 0.34
0.072806291 -0.098138526 0.34102941
0.077440798 -0.09745004 0.34240824
0.081701443 -0.098173954 0.34377268
0.092893802 -0.097403109 0.34311768
0.095259354 -0.097590193 0.34075004
0.093757078 -0.09447825 0.34250003
0.095188007 -0.094616503 0.34
0.087332301 -0.10199182 0.34500018
0.083265282 -0.096835442 0.34524009
0.087695904 -0.097608909 0.34609807
0.090322345 -0.096531823 0.34537503
0.087812714 -0.094828092 0.34716672
0.090396039 -0.094876565 0.347
