# .PCD v0.7 - Point Cloud Data file format
VERSION 0.7
FIELDS x y z
SIZE 4 4 4
TYPE F F F
COUNT 1 1 1
WIDTH 82
HEIGHT 1
VIEWPOINT 0 0 0 1 0 0 0
POINTS 82
DATA ascii
-0.011893017 -0.065994605 0.28387499
-0.006739811 -0.065998994 0.28340003
-0.0021505686 -0.065678351 0.28400001
0.0025566812 -0.065985359 0.28399995
0.0079802526 -0.066180706 0.28400004
0.012541316 -0.066253982 0.28399998
0.016582774 -0.066499226 0.28399998
-0.011065139 -0.064550199 0.28389999
-0.0073304111 -0.06342458 0.28375819
-0.0029345013 -0.063918613 0.28399998
0.002808061 -0.064376935 0.28399998
0.0078267548 -0.064296864 0.28399995
0.012541314 -0.064757362 0.28400004
0.015501618 -0.064481072 0.28400001
-0.015662044 -0.066273823 0.28758335
-0.013208133 -0.066999637 0.28528577
0.018519757 -0.066255778 0.28516668
0.020295329 -0.066293426 0.28666669
-0.015609506 -0.063898861 0.28876925
-0.012646444 -0.062437929 0.28678685
-0.0078921476 -0.060784642 0.28542855
-0.0021822874 -0.061455209 0.28527269
0.002511828 -0.061772764 0.28534374
0.0074573737 -0.061588708 0.28548217
0.012505724 -0.062238358 0.28586075
0.017635038 -0.062404305 0.28630769
0.020318929 -0.063766144 0.287
-0.011556326 -0.058615938 0.28844449
-0.007557624 -0.057375658 0.28773621
-0.0025269478 -0.057363477 0.28799996
0.002614137 -0.057323758 0.28803998
0.0074447612 -0.057451926 0.2879999
0.012220499 -0.057691686 0.28820834
0.016953928 -0.058601227 0.28837842
-0.0076554199 -0.054651082 0.289
0.0083940988 -0.054651082 0.289
0.010151345 -0.054651082 0.289
-0.016083186 -0.06139192 0.29000002
-0.014735217 -0.060012609 0.29000002
0.020861827 -0.060704872 0.29049999
-0.015986159 -0.057923336 0.29076186
-0.013120722 -0.056719504 0.29056865
0.0045438246 -0.055310406 0.29000002
0.013478015 -0.055467144 0.28999999
0.017872483 -0.056359969 0.29039022
0.020919051 -0.057392586 0.29102781
-0.015415167 -0.053928129 0.294
-0.011948604 -0.052849282 0.29219306
-0.0073241801 -0.052500959 0.29116169
-0.0025399376 -0.052642923 0.29116669
0.0022983805 -0.052613482 0.29100025
0.0073426557 -0.052467011 0.29106599
0.012659752 -0.052607033 0.29122376
0.017508235 -0.052597016 0.29215387
0.020919645 -0.053386576 0.29249999
-0.011393178 -0.049288798 0.29353338
-0.0074866307 -0.048240554 0.29347163
-0.0025562558 -0.048251219 0.29354995
0.0025262928 -0.048259467 0.2934792
0.0073387735 -0.048651546 0.29343489
0.012362011 -0.049043916 0.29360607
0.016488954 -0.049515236 0.2939333
-0.015720489 -0.051717971 0.29637501
-0.013990665 -0.051306229 0.29537502
0.019769214 -0.050364658 0.29500002
0.021320157 -0.050871987 0.29500008
-0.015749063 -0.047543321 0.29788458
-0.01266261 -0.04699485 0.2966727
-0.0078443373 -0.045749858 0.29505888
-0.0023477527 -0.045672499 0.29500005
0.0026405223 -0.045786388 0.29500005
0.0076176166 -0.046178572 0.29537934
0.012493598 -0.046423309 0.29567435
0.017531684 -0.047139429 0.2958529
0.021138957 -0.047317315 0.29702857
-0.015734427 -0.042507928 0.29769561
-0.012490179 -0.043007329 0.29788002
-0.0074863005 -0.042497419 0.29675007
-0.0025740175 -0.042675782 0.29682899
0.0024538026 -0.042634372 0.29708341
0.0075077647 -0.04274527 0.2975716
0.020730443 -0.044508837 0.2985
