# .PCD v0.7 - Point Cloud Data file format
VERSION 0.7
FIELDS x y z
SIZE 4 4 4
TYPE F F F
COUNT 1 1 1
WIDTH 190
HEIGHT 1
VIEWPOINT 0 0 0 1 0 0 0
POINTS 190
DATA ascii
-0.051245857 -0.002655142 0.17833333
-0.057228461 -0.0011956911 0.18376927
-0.052191105 -0.0015472415 0.18192506
-0.047506418 -0.0011558814 0.1820001
-0.042857487 -0.00087525893 0.18188643
-0.037252177 -0.0007487206 0.18107702
-0.03205432 -0.0008936972 0.18100011
-0.027133023 -0.0012071459 0.18151616
-0.024550417 -0.0018839529 0.18380773
-0.056685649 0.00097961677 0.18382226
-0.052315533 0.0022462942 0.18308434
-0.047657378 0.0021366645 0.18293463
-0.042670816 0.0021538667 0.18245538
-0.037185751 0.0021617145 0.18203372
-0.03249678 0.0024146806 0.18182111
-0.027656795 0.00221408 0.182271
-0.024634015 0.00059956906 0.18390912
-0.053341839 0.0059156208 0.18400002
-0.048929922 0.0053822133 0.18400002
-0.043758579 0.0051833158 0.18400002
-0.036476642 0.0062654368 0.18371432
-0.032206468 0.0067904736 0.18322724
-0.029122565 0.006634804 0.18367504
-0.060164839 -0.0053183711 0.18875001
-0.059229702 -0.0057081794 0.18900004
-0.053780448 -0.0051584044 0.1885
-0.025232455 -0.0050952705 0.18900001
-0.060146321 -0.0047508096 0.1875
-0.058603425 -0.0032910444 0.18771239
-0.053510346 -0.0045111678 0.18862501
-0.02586535 -0.0035382682 0.18700001
-0.024363196 -0.0017923001 0.18721431
-0.060154703 0.0028573356 0.18800001
-0.057624284 0.0036017252 0.18660815
-0.052355513 0.004331579 0.18499999
-0.047712192 0.0046653803 0.18553334
-0.0414159 0.004092373 0.18499997
-0.039719921 0.0042654318 0.18499999
-0.025964666 0.0038942285 0.18548483
-0.024463069 0.0027882201 0.18716668
-0.056594249 0.0072772629 0.18752243
-0.052530061 0.0075700707 0.18638897
-0.047886122 0.00752097 0.18659015
-0.04242808 0.0075560035 0.1861347
-0.037772041 0.0079230852 0.18563646
-0.033061404 0.0086979764 0.18551792
-0.027097259 0.0077734725 0.18622082
-0.024508096 0.0070714429 0.18808575
-0.056033842 0.010485394 0.18858334
-0.052696593 0.011340168 0.18856259
-0.047429387 0.011179306 0.18847063
-0.04287887 0.011241982 0.18835443
-0.037084952 0.011797389 0.18757652
-0.032633357 0.012457356 0.18749395
-0.027752155 0.01180123 0.18804798
-0.024925999 0.010227431 0.18900001
-0.03514114 0.015232848 0.18900001
-0.032955099 0.015191987 0.18900001
-0.060187165 -0.0080611175 0.19400001
-0.058085162 -0.006186401 0.19136368
-0.053966597 -0.007199409 0.19144
-0.025448281 -0.0060332585 0.19228573
-0.02470878 -0.0058700293 0.193
-0.057609882 -0.0042378646 0.19022225
-0.053044423 -0.0037168097 0.19014288
-0.025468651 -0.0044033872 0.19000003
-0.024375079 -0.0030001421 0.19153123
-0.024336385 0.00242174 0.19289474
-0.016406026 0.0044013029 0.19333334
-0.024149107 0.0080196923 0.19212496
-0.017092263 0.005150456 0.19400001
-0.056593202 0.012919023 0.19139022
-0.052608442 0.013801272 0.19029573
-0.047940288 0.013293449 0.19043514
-0.042298194 0.013382251 0.19017193
-0.038658667 0.013767162 0.19004655
-0.032862462 0.014902676 0.19000003
-0.027058607 0.013791788 0.19019227
-0.02445366 0.012354719 0.19196431
-0.055924319 0.017159449 0.19254166
-0.052541748 0.017492428 0.19249445
-0.047700111 0.017344179 0.19303139
-0.042495362 0.017713074 0.19259135
-0.037531585 0.017450435 0.19152501
-0.032550432 0.017551035 0.19077286
-0.027505122 0.01754842 0.19171518
-0.02445421 0.017516347 0.192921
-0.055475906 0.020931065 0.19375001
-0.052965473 0.020778775 0.19328575
-0.046594713 0.020740714 0.19361541
-0.043070223 0.020910393 0.19388898
-0.037243631 0.021021027 0.19397448
-0.032067671 0.021174006 0.19338299
-0.027713718 0.021046549 0.19331671
-0.05798218 -0.010935473 0.19871113
-0.024470158 -0.010366224 0.19900003
-0.058286157 -0.0079164775 0.19615774
-0.025561517 -0.0077612051 0.19625002
-0.024428373 -0.007577789 0.19705884
-0.024005443 -0.0034340206 0.19522221
-0.024151571 0.0031375007 0.19842109
-0.01585659 0.0045508714 0.19525
-0.023897439 0.0072774431 0.19725642
-0.017006233 0.0060701305 0.19741666
-0.023546068 0.012874505 0.19741175
-0.051944435 0.019649727 0.19533335
-0.047929138 0.018970476 0.19500002
-0.02370465 0.016716633 0.19718367
-0.05752565 -0.012840345 0.20029409
-0.025371615 -0.011143854 0.20233333
-0.024024909 -0.011388879 0.20257694
-0.02585678 -0.0093297167 0.20100001
-0.023957517 -0.0081263771 0.20072414
-0.024125766 0.0027535809 0.20000003
-0.02262638 0.0073016463 0.20125
-0.023391699 0.012857471 0.20012501
-0.058109853 -0.016725162 0.20705406
-0.025330799 -0.015528691 0.20875001
-0.023842232 -0.015702907 0.20838463
-0.057943471 -0.01260002 0.20831582
-0.025193274 -0.013526648 0.20533335
-0.023823475 -0.013759606 0.20649999
-0.057699692 -0.0077947774 0.20843484
-0.057452045 -0.0042749681 0.20883334
-0.025070956 -0.002909401 0.208
-0.024549795 -0.004214338 0.20787501
-0.056074332 -0.020941526 0.21232
-0.052518617 -0.021458162 0.214
-0.047315534 -0.021278454 0.21381825
-0.042322464 -0.021294918 0.21397918
-0.037237283 -0.021337444 0.2131556
-0.032749254 -0.021097921 0.21299995
-0.027671169 -0.021050522 0.21299994
-0.024568444 -0.020662222 0.21300001
-0.056827273 -0.017684316 0.21221064
-0.052805562 -0.019206151 0.21399997
-0.04740588 -0.019122589 0.21399999
-0.042364579 -0.01936079 0.214
-0.037135258 -0.018741999 0.21387838
-0.032588385 -0.01850144 0.21343192
-0.027488219 -0.018404441 0.21304652
-0.023730442 -0.018168161 0.21212727
-0.057050906 -0.012625266 0.21138379
-0.056988079 -0.0073846849 0.21251519
-0.054427873 -0.0050278353 0.21200001
-0.056640524 -0.0040850029 0.21258068
-0.054291673 -0.0040526213 0.21242861
-0.025651457 -0.0017591434 0.21175002
-0.024331935 -0.0027226647 0.21035717
-0.055314288 -0.01596405 0.21500002
-0.052579194 -0.016775122 0.21578026
-0.04745977 -0.016744986 0.21553333
-0.042461812 -0.016923934 0.21546429
-0.03774181 -0.016382184 0.21533336
-0.031966001 -0.016217995 0.21550003
-0.029235357 -0.016561916 0.21618751
-0.055854909 -0.012340384 0.21620001
-0.053088162 -0.012963618 0.21823633
-0.047466621 -0.012700573 0.21799254
-0.042495511 -0.013138819 0.2176856
-0.037629731 -0.013018658 0.21769299
-0.032453429 -0.013085236 0.21700846
-0.029240541 -0.014064641 0.21638463
-0.055971138 -0.0081668068 0.2172195
-0.054830439 -0.0094438205 0.21875
-0.03185948 -0.009566186 0.2175
-0.056243919 -0.0039369445 0.215
-0.050543461 -0.0027081659 0.21900001
-0.047684923 -0.0031510289 0.21833332
-0.040600728 -0.0030632634 0.21900003
-0.051901963 -0.010882041 0.22013788
-0.046850346 -0.01021163 0.22000001
-0.042788725 -0.010699875 0.22058332
-0.037080351 -0.010526609 0.22025
-0.033943452 -0.010595337 0.22057146
-0.02520453 -0.010258047 0.22100002
-0.024722422 -0.010281255 0.22150001
-0.055490468 -0.0067610806 0.22060001
-0.052708808 -0.0075920117 0.22212911
-0.047339756 -0.0076210783 0.22138341
-0.042507447 -0.0076711499 0.22157767
-0.037514895 -0.0077410485 0.22102587
-0.034172229 -0.0088912249 0.22105882
-0.025318578 -0.0097645205 0.22200002
-0.024958616 -0.0099445013 0.22200002
-0.055414759 -0.0042875474 0.22108333
-0.052839592 -0.0038913554 0.22173081
-0.046966884 -0.0042313375 0.22134212
-0.042456567 -0.0039867302 0.22069386
-0.038488843 -0.0042214328 0.22121434
