# .PCD v0.7 - Point Cloud Data file format
VERSION 0.7
FIELDS x y z
SIZE 4 4 4
TYPE F F F
COUNT 1 1 1
WIDTH 146
HEIGHT 1
VIEWPOINT 0 0 0 1 0 0 0
POINTS 146
DATA ascii
-0.050088398 0.029756529 0.12800001
-0.047452264 0.02944959 0.12859152
-0.050363515 0.031522889 0.12899998
-0.048177212 0.031323537 0.12894587
-0.051011555 0.029659372 0.13000003
-0.04542296 0.029426968 0.13000001
-0.042437024 0.028925046 0.1310384
-0.037796229 0.028313681 0.13332295
-0.034837075 0.028109524 0.134
-0.050465416 0.034184329 0.13013339
-0.046981655 0.033098355 0.13055058
-0.04275636 0.032199085 0.13228422
-0.03895589 0.031199235 0.13330437
-0.050916884 0.037845254 0.13225862
-0.047424421 0.037315171 0.13292465
-0.043965444 0.036268268 0.13368173
-0.051255729 0.040937144 0.1338919
-0.048036493 0.040168248 0.134
-0.034758188 0.024920935 0.13800001
-0.03586727 0.028572574 0.13567251
-0.034297206 0.027736323 0.13643475
-0.041345537 0.034554508 0.13500004
-0.037039086 0.032795608 0.13651568
-0.03426512 0.031949189 0.13820587
-0.05063865 0.03992077 0.13500001
-0.045824971 0.039359678 0.13537499
-0.042255729 0.03782741 0.13632357
-0.037988812 0.036933839 0.1375373
-0.051855918 0.043209754 0.13575464
-0.047489472 0.042517696 0.13650349
-0.043203317 0.041888684 0.13840483
-0.039345242 0.040716957 0.13889477
-0.052286111 0.047269423 0.13768032
-0.048003156 0.046075419 0.138436
-0.044926845 0.045554895 0.13900001
-0.053516742 0.050288558 0.13860001
-0.035992678 0.023572722 0.14224328
-0.034659516 0.024768023 0.142
-0.035088371 0.025383875 0.14137501
-0.033847742 0.027423525 0.14069031
-0.052847117 0.031187905 0.14400001
-0.035171125 0.034634631 0.14
-0.03361037 0.032549012 0.14168006
-0.036423463 0.038306776 0.14072883
-0.033834271 0.037359864 0.14243256
-0.041825958 0.043704614 0.14030281
-0.037410058 0.042439345 0.1421189
-0.034201484 0.041256823 0.14387041
-0.05113684 0.049240723 0.14002779
-0.047066569 0.048224054 0.14054422
-0.042720836 0.047431078 0.1421511
-0.03830618 0.046652898 0.1435937
-0.051996712 0.052493073 0.14190076
-0.047691412 0.051893558 0.14289242
-0.04377792 0.050661992 0.14357506
-0.038658183 0.050251368 0.14400004
-0.038235772 0.02205712 0.14719997
-0.046395931 0.029846469 0.148
-0.05130972 0.031111037 0.14550002
-0.048357148 0.030369148 0.14664286
-0.033201706 0.03387652 0.14571871
-0.033161506 0.037708029 0.14744003
-0.03558084 0.044500124 0.145
-0.033393938 0.042869724 0.1464652
-0.040400602 0.049696065 0.14500001
-0.036786254 0.048029747 0.14587358
-0.033820175 0.047212079 0.14727733
-0.040908057 0.018246576 0.15257892
-0.039652616 0.018450705 0.15300001
-0.040320374 0.020850878 0.15125
-0.039146014 0.021052085 0.15020001
-0.063946135 0.034561198 0.15362503
-0.032673068 0.039346136 0.15000001
-0.032804996 0.042881127 0.1515345
-0.067028373 0.014066157 0.15797752
-0.063788876 0.013755951 0.1588594
-0.045461494 0.013373524 0.15900001
-0.044269666 0.014428377 0.15834785
-0.067242287 0.01751191 0.15874022
-0.064617038 0.015826501 0.158875
-0.042283211 0.016196614 0.15592459
-0.066666417 0.020463314 0.15900001
-0.066847429 0.033397567 0.15742858
-0.062810831 0.033353649 0.15699998
-0.05764709 0.032916758 0.15820965
-0.054227054 0.032780934 0.15900002
-0.066863 0.03500104 0.156
-0.051743239 0.0096290177 0.16384619
-0.049178001 0.0095127998 0.16400003
-0.061503053 0.013666046 0.16076678
-0.057453882 0.012995433 0.16193759
-0.052971728 0.011920794 0.16356476
-0.047150437 0.012288116 0.16306059
-0.044462696 0.014093446 0.16071431
-0.0658435 0.019119743 0.16052777
-0.062585525 0.017498549 0.16163783
-0.058251642 0.017166967 0.16293789
-0.047133774 0.015163595 0.163
-0.070516117 0.02330366 0.16146877
-0.067233749 0.022614235 0.16175085
-0.063285798 0.021871325 0.16364501
-0.058819417 0.020894082 0.16400002
-0.045741107 0.023079151 0.16106251
-0.044969119 0.022667469 0.16000001
-0.070850849 0.027510133 0.16314931
-0.06822364 0.026942927 0.16336103
-0.058013294 0.02965945 0.16347063
-0.052707151 0.029066352 0.16396001
-0.070911288 0.030980889 0.16308829
-0.067226082 0.03147842 0.16237497
-0.062251512 0.031718705 0.16166125
-0.057166163 0.031189922 0.16126888
-0.0531216 0.031245971 0.16125238
-0.048679754 0.030813206 0.16350001
-0.048481278 0.0097647691 0.16500001
-0.056322001 0.014571356 0.16500001
-0.051611047 0.013725564 0.16550617
-0.049204122 0.012439041 0.16522495
-0.056505471 0.017611362 0.16520834
-0.052747011 0.017243668 0.16685256
-0.049576066 0.016963974 0.16786668
-0.065904774 0.024981065 0.16500001
-0.061873876 0.023099767 0.16560006
-0.057449955 0.022753308 0.1669441
-0.054142408 0.02121933 0.16743752
-0.049690835 0.022298364 0.16900001
-0.066483527 0.028215865 0.16599253
-0.062551938 0.027519258 0.16693167
-0.058093272 0.027775986 0.16767032
-0.053121142 0.028559431 0.16675927
-0.049257349 0.029439036 0.16600001
-0.070910968 0.031819995 0.16571428
-0.067112364 0.030623142 0.16577776
-0.062229648 0.030436814 0.16529727
-0.056213908 0.030123765 0.16500001
-0.052130468 0.031208806 0.16667996
-0.049051743 0.030302446 0.16508333
-0.052199889 0.019181622 0.17000003
-0.05563562 0.024607915 0.16999999
-0.05254972 0.022683337 0.17055
-0.049984865 0.022981601 0.17
-0.056352921 0.026638765 0.17051166
-0.05355021 0.026980363 0.17242347
-0.05236889 0.030258413 0.17255557
-0.054079738 0.029072499 0.175
-0.054150671 0.030183867 0.17500001
