# .PCD v0.7 - Point Cloud Data file format
VERSION 0.7
FIELDS x y z
SIZE 4 4 4
TYPE F F F
COUNT 1 1 1
WIDTH 145
HEIGHT 1
VIEWPOINT 0 0 0 1 0 0 0
POINTS 145
DATA ascii
-0.075066783 -0.020863324 0.21400002
-0.073262431 -0.020967422 0.21400002
-0.067234717 -0.02068983 0.21400002
-0.063130319 -0.02068983 0.21400002
-0.057948589 -0.02068983 0.214
-0.054386165 -0.020759229 0.21400002
-0.081196949 -0.0181915 0.21400002
-0.075196907 -0.019301869 0.214
-0.07260894 -0.018998254 0.21400003
-0.067623824 -0.018837783 0.21399999
-0.062401626 -0.01944232 0.21400008
-0.057623632 -0.019020976 0.21399997
-0.054550983 -0.019692233 0.214
-0.082676627 -0.020245019 0.21666668
-0.07742586 -0.020459127 0.21628574
-0.072618946 -0.020769438 0.21575001
-0.062751345 -0.020786513 0.215
-0.051884349 -0.0207569 0.21553338
-0.049540002 -0.021111066 0.21694444
-0.081215099 -0.017926689 0.21589132
-0.077904083 -0.017506234 0.21605442
-0.072530285 -0.016999468 0.21508008
-0.067491107 -0.016490579 0.2150501
-0.062637582 -0.017000686 0.21521881
-0.057252944 -0.01670832 0.21502827
-0.052507207 -0.017495977 0.21656369
-0.049665101 -0.01832108 0.21808
-0.081433587 -0.013004499 0.21789476
-0.077486925 -0.012697377 0.21761598
-0.072552539 -0.012586709 0.2173939
-0.0676504 -0.012614598 0.21754128
-0.062845282 -0.013012752 0.21774122
-0.057439826 -0.012661647 0.21702197
-0.053468924 -0.013114867 0.21854733
-0.081436954 -0.0097657293 0.219
-0.077447318 -0.0093088038 0.21899997
-0.072401695 -0.0096720243 0.21900006
-0.068002433 -0.009652297 0.21900006
-0.057621926 -0.0098060453 0.21890911
-0.054804634 -0.0098101161 0.21900001
-0.085384674 -0.02201985 0.22400001
-0.083147667 -0.021835895 0.22360002
-0.050261762 -0.021734551 0.223875
-0.050244603 -0.01984062 0.22400001
-0.04956587 -0.016882252 0.220375
-0.08224944 -0.01123676 0.22027779
-0.062947288 -0.01056835 0.22000001
-0.051187839 -0.011869692 0.22075008
-0.049657226 -0.013716544 0.22109093
-0.081457824 -0.0074251588 0.22135721
-0.077749915 -0.0070258453 0.22130944
-0.072662041 -0.0072172778 0.22087505
-0.067429341 -0.0073098666 0.22123684
-0.06261839 -0.0076090037 0.2216552
-0.057449251 -0.0073877652 0.22159828
-0.052674334 -0.0079579949 0.22252546
-0.080753461 -0.0044117738 0.2235
-0.076907463 -0.0035098563 0.22321157
-0.072452649 -0.0035126028 0.22325309
-0.067583591 -0.0036274146 0.22358897
-0.06233209 -0.0038433017 0.22379997
-0.057634398 -0.0036340121 0.22371826
-0.054421462 -0.0042747012 0.22400001
-0.045184225 -0.0016673387 0.22233336
-0.043836247 -0.0025105816 0.22245659
-0.044343274 0.00049645774 0.22300003
-0.085139297 -0.025148036 0.22600001
-0.050976213 -0.025522104 0.22520001
-0.04970853 -0.025727849 0.22557144
-0.085392743 -0.023411624 0.22499999
-0.083403729 -0.023367537 0.2254242
-0.050779011 -0.023194389 0.22499995
-0.049558807 -0.023508156 0.22573334
-0.050332516 -0.018284379 0.22692311
-0.049322512 -0.017934287 0.22726089
-0.05100444 -0.0065694782 0.22508328
-0.049402401 -0.0063877515 0.22687094
-0.081106327 -0.0019563062 0.22508891
-0.077612489 -0.0013696742 0.22504257
-0.072593011 -0.0010624672 0.22499999
-0.067180768 -0.0012302058 0.22507852
-0.062802777 -0.0013649939 0.22526425
-0.0574423 -0.0011626153 0.22508001
-0.0523961 -0.0024138035 0.22612707
-0.049078047 -0.0026479312 0.22813047
-0.081335291 0.0021137889 0.22737929
-0.077405319 0.0025466587 0.22698185
-0.072555602 0.0024642528 0.22700004
-0.067546912 0.002478916 0.22716381
-0.048148096 0.00026244047 0.22900002
-0.085522175 -0.026643243 0.23129411
-0.08425834 -0.025913235 0.23188241
-0.084770992 -0.024821227 0.2315
-0.050425023 -0.020698383 0.23
-0.049290683 -0.020682845 0.23
-0.050825544 -0.016483486 0.23161112
-0.049513716 -0.0170785 0.23090911
-0.05104452 -0.01404317 0.2333
-0.049588609 -0.014366748 0.2318
-0.048926633 -0.0066800797 0.23000002
-0.048532382 -0.0017999789 0.23
-0.085537501 -0.03148213 0.2366471
-0.084349655 -0.031663109 0.23746671
-0.085330032 -0.028337121 0.23552637
-0.084686436 -0.027605046 0.23640001
-0.050086312 -0.0071578748 0.23700002
-0.048519947 -0.0079150675 0.23663639
-0.085767202 -0.03551282 0.24242859
-0.084306724 -0.035520315 0.24364287
-0.086336464 -0.034156088 0.24125004
-0.083864026 -0.032917447 0.24302183
-0.082900718 -0.029474072 0.24250001
-0.080379374 -0.040371671 0.245
-0.077537075 -0.040491521 0.24572729
-0.072802447 -0.040608983 0.24600004
-0.067299061 -0.040597826 0.24600004
-0.062152337 -0.04066553 0.24564709
-0.057546563 -0.040760033 0.24581814
-0.054421492 -0.041123495 0.24633336
-0.085112214 -0.03782668 0.24566667
-0.082027145 -0.037341356 0.24529494
-0.077521637 -0.037465807 0.24649997
-0.072583191 -0.0374097 0.24673076
-0.067479648 -0.037500151 0.24683061
-0.062344141 -0.037438478 0.24700004
-0.057538725 -0.037695378 0.24708475
-0.054535761 -0.038332574 0.24700002
-0.081665136 -0.032658335 0.24704258
-0.077524759 -0.033235479 0.24869484
-0.072912194 -0.033647873 0.2485435
-0.06755197 -0.034125015 0.24896881
-0.062367797 -0.034111518 0.24900006
-0.058410652 -0.034139764 0.2486667
-0.082849286 -0.028243061 0.24706064
-0.08096312 -0.030337915 0.25072733
-0.077481456 -0.030759232 0.25100002
-0.072230041 -0.031372681 0.25086966
-0.067362688 -0.031592026 0.25093335
-0.062830627 -0.031676408 0.25107357
-0.059406329 -0.032277614 0.25
-0.081922606 -0.027501576 0.25154933
-0.0776553 -0.027585171 0.25239205
-0.07265649 -0.027684102 0.25248769
-0.067450829 -0.028081218 0.25218332
-0.063421816 -0.028690759 0.25208694
