# .PCD v0.7 - Point Cloud Data file format
VERSION 0.7
FIELDS x y z
SIZE 4 4 4
TYPE F F F
COUNT 1 1 1
WIDTH 108
HEIGHT 1
VIEWPOINT 0 0 0 1 0 0 0
POINTS 108
DATA ascii
0.062822618 -0.092009731 0.32371801
0.067229822 -0.091944896 0.32299998
0.072371371 -0.091229141 0.32299998
0.07695204 -0.090374202 0.32249999
0.082353637 -0.090249464 0.32242861
0.08741717 -0.090409406 0.32299998
0.093095802 -0.09084966 0.32316667
0.097360633 -0.091379717 0.3228572
0.10121557 -0.09053921 0.32400003
0.063474752 -0.087874524 0.32397148
0.06757988 -0.087867491 0.32361117
0.072536327 -0.087819248 0.3234902
0.077440701 -0.087516569 0.32320315
0.08243715 -0.087485448 0.32308936
0.087496676 -0.087651476 0.32313332
0.09241388 -0.087432504 0.32303509
0.097456656 -0.087495148 0.3229841
0.10074498 -0.087769054 0.32349998
0.078187749 -0.084910467 0.324
0.081646293 -0.084910467 0.324
0.092622362 -0.084460169 0.32399997
0.097372219 -0.084108628 0.32399994
0.059722971 -0.092290245 0.32520002
0.060796175 -0.091878243 0.32511115
0.09309642 -0.091496184 0.32500002
0.062985897 -0.086514436 0.32536367
0.06796395 -0.085415758 0.32500005
0.072412796 -0.08539211 0.32500005
0.075706363 -0.085172534 0.32500002
0.084137909 -0.085172534 0.32500002
0.087141648 -0.085330628 0.32500002
0.10092892 -0.085435554 0.32533336
0.064414039 -0.08299724 0.32787502
0.067386113 -0.082430474 0.3269515
0.072495304 -0.082293272 0.32648328
0.077492096 -0.082412042 0.32610905
0.08264181 -0.082431614 0.32588682
0.087719306 -0.082456179 0.32576934
0.092640981 -0.082155854 0.32637501
0.097426064 -0.0817644 0.32684448
0.10122596 -0.082353316 0.32764003
0.064902082 -0.079819329 0.32900003
0.068158969 -0.078988612 0.32882613
0.072637536 -0.078230709 0.3285386
0.077686906 -0.078016609 0.32832164
0.082498357 -0.077570029 0.32787871
0.087288894 -0.077947728 0.32807145
0.092068695 -0.078747839 0.32850006
0.096109323 -0.079445906 0.32900003
0.064564273 -0.082202256 0.33000001
0.099344388 -0.080061935 0.33000001
0.10363531 -0.082017489 0.33072725
0.10532968 -0.082700446 0.33200002
0.064372063 -0.076266624 0.33400008
0.067378543 -0.076603234 0.33171156
0.072364412 -0.075734518 0.33005553
0.077162944 -0.075440802 0.33000001
0.089111008 -0.075781301 0.33000001
0.092827946 -0.076228224 0.33022216
0.097716749 -0.077063471 0.3307963
0.10235301 -0.077324137 0.33199999
0.105107 -0.07863 0.333
0.068087004 -0.073827498 0.3337858
0.072744176 -0.073659435 0.33228567
0.077635936 -0.072916456 0.33188245
0.082424037 -0.072416909 0.33188409
0.087553464 -0.072312109 0.33174235
0.092394046 -0.072635017 0.33249053
0.097367801 -0.073015869 0.33326194
0.10159872 -0.073989414 0.33361542
0.0829864 -0.069117978 0.33400005
0.087860487 -0.069117978 0.33400005
0.096831888 -0.10038461 0.33900002
0.096553192 -0.099004142 0.33866668
0.062476225 -0.087177701 0.33880007
0.061790325 -0.083688349 0.33900002
0.062470715 -0.076779671 0.33500001
0.063063048 -0.072540306 0.33676597
0.067741595 -0.071948774 0.33630005
0.072460182 -0.071201876 0.33504
0.076813631 -0.070773408 0.33500001
0.093788192 -0.070501827 0.33500001
0.097823285 -0.070682876 0.33500001
0.10100479 -0.072273642 0.33500001
0.092830345 -0.10223895 0.34287807
0.095832631 -0.10096374 0.34033334
0.089614518 -0.097960755 0.34400001
0.093078323 -0.098874405 0.34213045
0.095629051 -0.099026851 0.34
0.063663892 -0.086460158 0.34044448
0.063974828 -0.082563974 0.34060878
0.064866893 -0.070910901 0.34
0.066153243 -0.07072714 0.34
0.08797846 -0.10619137 0.34752944
0.090135537 -0.10526256 0.34600002
0.089000531 -0.10280654 0.34700006
0.090306334 -0.10284833 0.34542862
0.089521445 -0.099370651 0.34580001
0.090434432 -0.099364325 0.34500003
0.083209977 -0.11107168 0.35300002
0.085090622 -0.11082638 0.35300002
0.07875745 -0.10637374 0.35187504
0.08234603 -0.10773969 0.35290232
0.085904531 -0.10719476 0.35189658
0.07768748 -0.10350885 0.35078579
0.082812957 -0.1040763 0.35353339
0.08661776 -0.10307036 0.3527942
0.083845884 -0.10243633 0.35500002
