# .PCD v0.7 - Point Cloud Data file format
VERSION 0.7
FIELDS x y z
SIZE 4 4 4
TYPE F F F
COUNT 1 1 1
WIDTH 107
HEIGHT 1
VIEWPOINT 0 0 0 1 0 0 0
POINTS 107
DATA ascii
0.053435497 0.026892463 0.119
0.053299893 0.028866382 0.12241303
0.057602368 0.029237891 0.12200799
0.062567696 0.028770393 0.12233135
0.053504068 0.031761229 0.12307543
0.05745909 0.031851456 0.12283397
0.062448177 0.031088084 0.12322446
0.065176189 0.030837236 0.12400001
0.053762957 0.027777575 0.12733328
0.055399727 0.027192075 0.12733334
0.052797113 0.033687618 0.12627001
0.057984985 0.034415968 0.12504762
0.062548518 0.033641435 0.12515721
0.065923959 0.033415526 0.12592304
0.053206738 0.037400749 0.12795538
0.057560377 0.037469644 0.12708849
0.062467273 0.037376061 0.12780005
0.066323124 0.036611747 0.12851843
0.05274741 0.040814977 0.12899998
0.056732539 0.040486921 0.12899999
0.054833524 0.024105268 0.13286667
0.055870861 0.023984199 0.13285071
0.054299105 0.026005786 0.13034216
0.055714943 0.026178187 0.13100003
0.053539552 0.039777216 0.13000001
0.063299693 0.039793193 0.13000004
0.0675629 0.038739555 0.13040791
0.053487632 0.042746581 0.13079458
0.057480115 0.042962741 0.13112496
0.062398404 0.042444523 0.1316756
0.067217268 0.041802984 0.13258664
0.07011918 0.041419525 0.1332
0.053466041 0.04611966 0.13240349
0.057703521 0.046492457 0.13374554
0.061970081 0.045442361 0.1339024
0.057181444 0.022245741 0.13777781
0.052461255 0.044955373 0.13500001
0.068275094 0.044306792 0.13507323
0.071016937 0.044016555 0.13580005
0.053035356 0.048416518 0.13510542
0.057238933 0.048794586 0.13539608
0.062733844 0.047862004 0.13581477
0.067528978 0.04749278 0.13705815
0.071549013 0.047097534 0.1380834
0.058375761 0.018579271 0.14216883
0.060594887 0.019584861 0.140875
0.058290415 0.020900045 0.14035292
0.060887087 0.020659978 0.14130001
0.059694491 0.028572829 0.14400001
0.063462131 0.028915791 0.14350002
0.065142572 0.029351128 0.14400001
0.064247325 0.030949969 0.14373687
0.065359667 0.031645048 0.14400002
0.059832834 0.014888054 0.148
0.060622908 0.0146624 0.1488
0.076975651 0.013543575 0.14870374
0.059528906 0.016214762 0.14666668
0.062106613 0.017422723 0.14771701
0.077854723 0.016340103 0.1489334
0.063066885 0.024443172 0.14818183
0.062930964 0.028448461 0.14698759
0.066177875 0.02856819 0.14766668
0.063347816 0.030623218 0.14659999
0.067830071 0.031915441 0.14750671
0.072942749 0.032484792 0.14900002
0.076986991 0.031198354 0.14876665
0.072806291 0.009725417 0.15390003
0.063033722 0.013091618 0.15237239
0.06555412 0.013659577 0.15318184
0.073609248 0.012224857 0.15290965
0.075679421 0.012880035 0.1514546
0.063771822 0.016077606 0.15154763
0.065719746 0.016333252 0.15252002
0.07429111 0.01588057 0.15378125
0.076864511 0.017599026 0.15188192
0.064414956 0.024235694 0.14999999
0.066852249 0.022928482 0.15376668
0.078545004 0.022129444 0.15223779
0.080016628 0.024069117 0.15200002
0.06445986 0.026708977 0.15007691
0.067137599 0.027330156 0.15225273
0.071860008 0.029467212 0.1536444
0.07825435 0.028510815 0.15282089
0.080440283 0.027683828 0.15308887
0.069536164 0.031232033 0.15036364
0.072421655 0.031379279 0.15147266
0.076554343 0.030854644 0.15095286
0.064122729 0.0094238548 0.15642856
0.067220561 0.0092064822 0.15764789
0.071048252 0.0098956842 0.15580001
0.064351067 0.010884383 0.15541175
0.068039969 0.011940456 0.15728772
0.071413226 0.012879626 0.15639634
0.069190636 0.017846454 0.15848887
0.07254535 0.01725488 0.15730065
0.07557863 0.018978829 0.15541938
0.068280429 0.022129765 0.15600008
0.073411629 0.021793045 0.15837884
0.07685817 0.022620458 0.15683509
0.068853803 0.025971832 0.15629415
0.072801411 0.027887017 0.15672557
0.077363186 0.027223557 0.15645383
0.07189738 0.018969286 0.15999995
0.072660908 0.022808239 0.16050646
0.075770885 0.024030624 0.16004549
0.073218361 0.025956249 0.16009519
0.075625546 0.025940077 0.1602353
