# .PCD v0.7 - Point Cloud Data file format
VERSION 0.7
FIELDS x y z
SIZE 4 4 4
TYPE F F F
COUNT 1 1 1
WIDTH 88
HEIGHT 1
VIEWPOINT 0 0 0 1 0 0 0
POINTS 88
DATA ascii
0.062651381 0.024648763 0.12874515
0.063198291 0.027025487 0.12836993
0.066009976 0.027837968 0.12722988
0.064082831 0.030450907 0.12899998
0.06676472 0.031726066 0.12859258
0.054616928 0.024248034 0.13300002
0.057099059 0.024173276 0.1322519
0.060798191 0.024534009 0.1302273
0.054429803 0.027461905 0.13270903
0.057547044 0.026970422 0.13206689
0.061264217 0.028247191 0.13161002
0.059104446 0.03069048 0.13400003
0.062551834 0.032274749 0.13225928
0.066427954 0.033748969 0.13081904
0.054918844 0.039329354 0.133
0.055292267 0.039012741 0.13400002
0.064166255 0.036166817 0.13355124
0.067251928 0.037401181 0.1323556
0.070106968 0.039483394 0.13300002
0.054897223 0.040494159 0.134
0.055114496 0.040059611 0.134
0.068746686 0.040828533 0.13381629
0.070243657 0.041565642 0.133625
0.061453257 0.019917747 0.13900001
0.058188837 0.022649793 0.13624619
0.06082131 0.021734653 0.13897221
0.056660812 0.02904084 0.13500001
0.061678637 0.025326904 0.13900001
0.054652844 0.032647908 0.13744
0.057435259 0.032761436 0.13635531
0.060702939 0.033786606 0.13500008
0.054584034 0.03591983 0.139
0.056738392 0.036589213 0.13745981
0.062504046 0.037832841 0.13668312
0.065611839 0.039668202 0.13500001
0.054869104 0.041671939 0.13500001
0.055944301 0.041395728 0.13665625
0.06375777 0.041531697 0.13835424
0.067206964 0.042591088 0.13641739
0.070710041 0.044046123 0.13547225
0.068497002 0.04634184 0.13834226
0.071472265 0.047501709 0.13789523
0.063781805 0.019319417 0.14051518
0.067816414 0.017954879 0.14328574
0.063086376 0.022793001 0.14149638
0.065850213 0.022098156 0.14362796
0.063706815 0.025487022 0.14242107
0.065181479 0.025537478 0.14400001
0.05444153 0.037553824 0.14096157
0.057715397 0.038557366 0.14059459
0.060315765 0.038316552 0.1401875
0.05816168 0.042088706 0.14200006
0.061970107 0.042791359 0.14137499
0.065941356 0.044630773 0.14
0.057500761 0.046260279 0.14333336
0.063304156 0.046925936 0.14255035
0.066886105 0.048059054 0.14143965
0.070553906 0.049393069 0.14
0.073761538 0.014652391 0.147
0.076861434 0.013483902 0.14895189
0.069157511 0.01928959 0.14526087
0.07235577 0.017323017 0.14676806
0.075991794 0.016346442 0.14805885
0.068374224 0.022716628 0.14686047
0.071318932 0.021603137 0.14873335
0.066824727 0.025774099 0.14650002
0.05493661 0.039821435 0.14500001
0.054749057 0.043552771 0.146625
0.055839404 0.042999089 0.14612822
0.061989918 0.044993859 0.14500001
0.078649253 0.012547101 0.15016003
0.076495998 0.018576629 0.15145652
0.073177129 0.022837963 0.15137927
0.076561198 0.021722015 0.15322033
0.069476858 0.026419941 0.15055002
0.071636356 0.026655551 0.15215383
0.078737117 0.029661501 0.15334485
0.080544226 0.029199028 0.15350004
0.078680001 0.030210795 0.15360004
0.079375863 0.019529639 0.155
0.078173652 0.02301497 0.15559153
0.082068175 0.022785442 0.15837382
0.074504659 0.026779734 0.15524998
0.077764653 0.02748025 0.15635191
0.081647016 0.026708884 0.1572881
0.077132314 0.030238386 0.15525
0.083997414 0.023878153 0.16000003
0.083079115 0.025076484 0.16000003
