# .PCD v0.7 - Point Cloud Data file format
VERSION 0.7
FIELDS x y z
SIZE 4 4 4
TYPE F F F
COUNT 1 1 1
WIDTH 134
HEIGHT 1
VIEWPOINT 0 0 0 1 0 0 0
POINTS 134
DATA ascii
0.078591697 -0.022526039 0.2117532
0.082349651 -0.022159541 0.21115315
0.079169929 -0.018360399 0.21241665
0.081733443 -0.017977335 0.21213591
0.074676849 -0.027048489 0.21900003
0.07655707 -0.026669627 0.21762715
0.087873578 -0.026073584 0.21900001
0.07700821 -0.022626802 0.21802327
0.078256018 -0.017749632 0.21752176
0.083643891 -0.016355596 0.21555176
0.086098984 -0.016111214 0.21727781
0.079362728 -0.013136768 0.21741176
0.081676401 -0.013002569 0.21662916
0.086130731 -0.014625212 0.21800001
0.080976583 -0.0086270748 0.21880768
0.073283002 -0.030443596 0.22369233
0.075268343 -0.030237963 0.223
0.073371209 -0.027476672 0.22209635
0.075430565 -0.028502434 0.22020002
0.088862099 -0.026754925 0.22044447
0.091174103 -0.028032584 0.22200006
0.074152388 -0.023589075 0.22253656
0.075354882 -0.021687713 0.22120588
0.089153409 -0.022092491 0.22400001
0.074697867 -0.019235279 0.22400002
0.076524623 -0.017263124 0.22172366
0.089127652 -0.016712794 0.22284617
0.090315662 -0.015482165 0.22400002
0.078013174 -0.012567561 0.22222917
0.084711291 -0.011453223 0.22340003
0.087535135 -0.01269172 0.22294194
0.079145245 -0.0080907512 0.22323072
0.081518099 -0.0069882604 0.22117239
0.08823806 -0.0070810206 0.222
0.079782724 -0.0049492246 0.22400001
0.081808068 -0.0040488574 0.22253339
0.087601565 -0.0033559038 0.22203849
0.069527254 -0.032553054 0.22892861
0.071294487 -0.031924561 0.22688706
0.075396158 -0.030873982 0.22500001
0.0696816 -0.029566294 0.22900002
0.071299843 -0.027435325 0.22695522
0.072656333 -0.022218805 0.22649358
0.075031333 -0.020658847 0.22500001
0.089478455 -0.020585882 0.22500001
0.090354033 -0.020476434 0.22500001
0.07354103 -0.017419994 0.22654168
0.075376958 -0.016741766 0.22499995
0.089502774 -0.019260347 0.22500001
0.090988241 -0.018185405 0.22539128
0.074303724 -0.013195083 0.22774424
0.076005585 -0.011842864 0.22628005
0.086852595 -0.010781344 0.22653337
0.074879974 -0.0098867547 0.22900002
0.077397607 -0.0074736695 0.22720003
0.087385438 -0.0090728803 0.22719048
0.068064943 -0.035851959 0.23272413
0.070640773 -0.035244279 0.23133335
0.067839913 -0.032421056 0.23147437
0.071477622 -0.034543537 0.23
0.068753973 -0.027663592 0.23183097
0.070483133 -0.026421875 0.22999999
0.069407798 -0.02374341 0.23288889
0.07088577 -0.02223973 0.23135294
0.071721964 -0.017683718 0.2325
0.073485635 -0.01224325 0.23235556
0.074462622 -0.0078357905 0.232697
0.075875424 -0.0065399758 0.23084994
0.06555523 -0.040158033 0.23900001
0.064586408 -0.039770506 0.23900001
0.066332623 -0.037654217 0.23691845
0.066500887 -0.032451306 0.23732255
0.067633569 -0.027342288 0.23799998
0.069233693 -0.022468315 0.23726925
0.069983169 -0.019163761 0.23500001
0.070443802 -0.017095203 0.23696552
0.071810067 -0.012415508 0.23582543
0.064154319 -0.041337542 0.24200003
0.066584907 -0.041576535 0.2422632
0.089186907 -0.043674506 0.24399999
0.092693277 -0.042793039 0.24383534
0.097545341 -0.042176396 0.24304546
0.10198072 -0.042007372 0.24203064
0.06455116 -0.038152505 0.24257694
0.065513477 -0.036364622 0.24172221
0.071080834 -0.039415624 0.24400002
0.098362267 -0.03890596 0.2437
0.10154571 -0.038770497 0.24289289
0.065685399 -0.032560878 0.24217501
0.066633962 -0.027370419 0.24189475
0.068216145 -0.022458879 0.2415536
0.069042251 -0.01760431 0.24178949
0.07027211 -0.01531175 0.24033335
0.069431417 -0.013484434 0.24325
0.070548899 -0.012204586 0.241561
0.064353101 -0.04549339 0.24520002
0.067598216 -0.045535989 0.24499993
0.072394736 -0.045766164 0.24600002
0.063338175 -0.04263813 0.24547216
0.067970634 -0.043483507 0.24499992
0.072460636 -0.042790048 0.24605332
0.077463284 -0.04274293 0.24632011
0.082552902 -0.042691603 0.24568897
0.087237433 -0.042281181 0.24522902
0.091596052 -0.040732808 0.24499993
0.06321542 -0.037252296 0.24621157
0.073709421 -0.039482534 0.24635716
0.077871904 -0.0387064 0.24735591
0.082505941 -0.037736312 0.24746449
0.087463133 -0.03763276 0.24747263
0.092502266 -0.037414122 0.24672644
0.09737777 -0.036781777 0.24576105
0.10127714 -0.036174409 0.24619046
0.063728064 -0.032324437 0.2460714
0.065512627 -0.030440291 0.245
0.084325626 -0.03429687 0.24775001
0.087906688 -0.033435561 0.24881247
0.092445515 -0.032529283 0.2489894
0.096939363 -0.033323981 0.24778575
0.10052364 -0.034159772 0.24700002
0.064033076 -0.027980382 0.24669051
0.065637238 -0.027409198 0.24538459
0.08997719 -0.02988779 0.24700001
0.091378935 -0.029487291 0.24700001
0.064700261 -0.024553375 0.24875002
0.066476561 -0.022465536 0.24691524
0.067561425 -0.017635973 0.24754761
0.062897339 -0.035520509 0.25
0.062424514 -0.032789197 0.25026089
0.063267671 -0.027549474 0.25240004
0.064443998 -0.023174498 0.25316665
0.065284811 -0.021468248 0.25128573
0.063309163 -0.025675744 0.2554546
0.063635029 -0.022279778 0.2566154
