# .PCD v0.7 - Point Cloud Data file format
VERSION 0.7
FIELDS x y z
SIZE 4 4 4
TYPE F F F
COUNT 1 1 1
WIDTH 143
HEIGHT 1
VIEWPOINT 0 0 0 1 0 0 0
POINTS 143
DATA ascii
0.067822397 -0.03083978 0.219
0.063679107 -0.026975937 0.21797825
0.067684077 -0.027165573 0.21857147
0.072384022 -0.02702621 0.21801171
0.077193432 -0.026357817 0.21753342
0.082663387 -0.026176885 0.21599987
0.087459132 -0.026148314 0.21589284
0.092237949 -0.025884228 0.21588634
0.097703852 -0.025852142 0.21503706
0.10285133 -0.026443951 0.21588635
0.10530224 -0.025085991 0.21600001
0.063225798 -0.024638932 0.21824999
0.069188982 -0.024401397 0.21900003
0.072812341 -0.023973288 0.21873839
0.077779613 -0.023445221 0.21837232
0.082455538 -0.022556929 0.21782085
0.08746472 -0.022500366 0.21738721
0.09255328 -0.022385402 0.21706559
0.097522609 -0.022674039 0.21627614
0.10222635 -0.022799727 0.21640348
0.10530224 -0.024735758 0.21600001
0.062799767 -0.017281253 0.21843995
0.083328329 -0.019626027 0.21900004
0.08785937 -0.019397754 0.219
0.092578612 -0.019113671 0.21899997
0.097814955 -0.019036317 0.21874994
0.10111489 -0.01873653 0.21872412
0.067741439 -0.031238383 0.22200002
0.10286283 -0.030425332 0.22285718
0.064802714 -0.028761018 0.22000001
0.065827228 -0.026952852 0.22011113
0.10319596 -0.028764989 0.22116667
0.10527068 -0.028566783 0.22033334
0.064010978 -0.022348778 0.21999994
0.067481101 -0.022322452 0.22087514
0.072171539 -0.021437576 0.22059213
0.077069312 -0.021031786 0.22010867
0.080141626 -0.020199761 0.22000001
0.10457687 -0.021136148 0.22000001
0.1052741 -0.021269917 0.22000001
0.064418375 -0.01868006 0.2209091
0.067604885 -0.018233117 0.22347939
0.072587825 -0.017760934 0.22275218
0.077455081 -0.017437289 0.22208512
0.082297489 -0.017294591 0.22097418
0.087456331 -0.017072819 0.22075759
0.092393078 -0.016750617 0.22041978
0.097409658 -0.0168184 0.22067899
0.10200478 -0.016825944 0.22090477
0.10529032 -0.019843042 0.22000001
0.07469786 -0.014755755 0.22400001
0.078035779 -0.014123266 0.22387499
0.082724631 -0.013350104 0.22311357
0.087644048 -0.013213675 0.22324245
0.092539899 -0.012813084 0.22279842
0.097383872 -0.013090467 0.22282982
0.10203904 -0.013398379 0.22319348
0.099386573 -0.035507284 0.22900002
0.1005005 -0.035507284 0.22900002
0.066910297 -0.032150798 0.22557572
0.099455565 -0.032866705 0.22892003
0.10138097 -0.03233489 0.22739743
0.099492677 -0.029566295 0.22900002
0.10144985 -0.029345661 0.22729169
0.064519651 -0.015474669 0.22566669
0.067607686 -0.015773259 0.22507142
0.071242757 -0.015410963 0.22499998
0.10476467 -0.015368867 0.22500001
0.10541352 -0.016902965 0.22600001
0.064235836 -0.01269416 0.22719365
0.067449167 -0.012648325 0.22697411
0.072478689 -0.012325734 0.22643651
0.077323236 -0.011832322 0.22583149
0.081984296 -0.010909411 0.22537498
0.087435439 -0.010443714 0.22499993
0.092474587 -0.010238498 0.22499996
0.09805312 -0.010481454 0.22499993
0.10275139 -0.011301725 0.22500008
0.10567674 -0.013727149 0.22500001
0.069204204 -0.0095154438 0.22900002
0.072898269 -0.0086078867 0.22868854
0.077559456 -0.0082009016 0.22801261
0.082567476 -0.0081268987 0.22731102
0.087553158 -0.0074144895 0.2271238
0.09243948 -0.0072559696 0.22687599
0.09761136 -0.0073944498 0.22699153
0.10239997 -0.007257083 0.2270001
0.1055135 -0.007126167 0.22800002
0.088989839 -0.0046883868 0.22900002
0.073034219 -0.036145877 0.23384999
0.098282523 -0.036496878 0.23259997
0.074249983 -0.033428174 0.23381819
0.098720983 -0.032434113 0.23170587
0.098718137 -0.029611381 0.23142859
0.066629492 -0.010302862 0.23
0.064567886 -0.0071530272 0.23105261
0.067538261 -0.0073524108 0.23094644
0.072249122 -0.0062483135 0.23093227
0.07733532 -0.0056539145 0.23014994
0.082644336 -0.0055399667 0.23
0.085928805 -0.0051750266 0.23
0.075979702 -0.040313043 0.23900001
0.094813481 -0.040351797 0.23900001
0.095904484 -0.040814769 0.2383077
0.073393852 -0.037598938 0.23526676
0.076450564 -0.039069343 0.23866667
0.094813481 -0.03854334 0.23900001
0.096473761 -0.037566181 0.23711118
0.074936688 -0.034532402 0.23500001
0.097567841 -0.032769922 0.23700011
0.098180182 -0.029959913 0.23500001
0.078422479 -0.040982015 0.24121054
0.081263244 -0.04136236 0.24355558
0.093260244 -0.041895043 0.24250881
0.095210195 -0.041688077 0.24000001
0.078094944 -0.03804636 0.24110003
0.093913823 -0.037652478 0.24173014
0.095434733 -0.035864815 0.24028572
0.094400346 -0.03351742 0.24232003
0.095912278 -0.033085052 0.24061762
0.083590455 -0.045947328 0.24814288
0.087298006 -0.046176929 0.24895734
0.090896919 -0.045568086 0.2488462
0.083295271 -0.044148397 0.2477143
0.087021627 -0.044210263 0.24900004
0.091364257 -0.042361461 0.24755359
0.079964742 -0.035695013 0.24700001
0.08199279 -0.036827181 0.24818921
0.092486456 -0.03759348 0.24724589
0.081297904 -0.034317415 0.24862503
0.09366183 -0.033956103 0.2474706
0.089313462 -0.047366105 0.25
0.091291152 -0.046833809 0.25
0.084676236 -0.04056181 0.25300002
0.08772327 -0.042127848 0.25122827
0.09024208 -0.041205697 0.25037503
0.084013328 -0.036381301 0.2507143
0.088412419 -0.038600583 0.25292861
0.090997465 -0.037141532 0.25139999
0.083533049 -0.034380138 0.25022224
0.091642514 -0.034197811 0.25185296
0.088122539 -0.037043661 0.25631109
0.08884652 -0.034572907 0.25631249
