# .PCD v0.7 - Point Cloud Data file format
VERSION 0.7
FIELDS x y z
SIZE 4 4 4
TYPE F F F
COUNT 1 1 1
WIDTH 155
HEIGHT 1
VIEWPOINT 0 0 0 1 0 0 0
POINTS 155
DATA ascii
0.019410765 -0.026550431 0.21900001
0.020712789 -0.026381334 0.21900001
-0.012220067 -0.026293987 0.22309989
-0.0077432604 -0.026036475 0.22218651
-0.0023868214 -0.026192129 0.22114033
0.0024239861 -0.026140671 0.22066669
0.0077015064 -0.025838945 0.22002494
0.012651943 -0.025953801 0.21999998
0.017368231 -0.025824945 0.21999992
0.02281883 -0.026128966 0.22003922
0.027127691 -0.026535261 0.22097963
-0.01587222 -0.023835873 0.22400001
-0.012130903 -0.023403414 0.22378117
-0.007500683 -0.023052394 0.2233187
-0.0022355288 -0.022634352 0.22272745
0.0027008597 -0.022571186 0.22249998
0.0076319859 -0.022528749 0.2219262
0.012492101 -0.022519076 0.22212881
0.017540311 -0.022473892 0.22168936
0.022568647 -0.022490678 0.22184846
0.026910488 -0.0227661 0.22244573
-0.0014713822 -0.019529302 0.22400001
0.0025472199 -0.019513739 0.22400001
0.0077750408 -0.019002452 0.22400001
0.01232277 -0.019210346 0.22399999
0.017374666 -0.019082434 0.22374359
0.022528438 -0.019235287 0.22399999
0.025846807 -0.019598484 0.22400001
-0.01580124 -0.030479267 0.22750002
-0.013468085 -0.031287864 0.22884622
0.026320187 -0.031094518 0.22794445
-0.016564157 -0.027373942 0.22759643
-0.013388489 -0.029186321 0.2281334
0.024629071 -0.029690064 0.22900002
0.026338816 -0.029353436 0.2261667
-0.016428702 -0.022765702 0.22549997
-0.012817477 -0.021058422 0.22576189
-0.0076880297 -0.020567402 0.22509086
-0.0045529152 -0.020658849 0.22500002
0.028287305 -0.020764276 0.22583336
-0.016212409 -0.017874416 0.22843339
-0.0123395 -0.017659867 0.22779813
-0.007567205 -0.017403116 0.22736442
-0.0026997561 -0.017200524 0.22625454
0.0024677333 -0.017100997 0.22575766
0.0073166178 -0.01660407 0.22580779
0.01254094 -0.01681087 0.22567828
0.017592896 -0.016734157 0.2254616
0.022533625 -0.016819974 0.22553419
0.027306126 -0.0173281 0.22705156
-0.0065048826 -0.014207478 0.22900003
-0.0020409417 -0.013406008 0.22850001
0.0027581195 -0.013657751 0.2279108
0.0078227492 -0.013344108 0.22774032
0.012532665 -0.013324352 0.22787666
0.017451145 -0.012890964 0.22809096
0.022301735 -0.012968318 0.22807361
0.02630998 -0.013503282 0.22841863
-0.010372119 -0.035334006 0.23400001
-0.0099926991 -0.035144296 0.23400001
-0.011197131 -0.032141495 0.23067437
-0.0095493374 -0.032202657 0.23314813
0.023766527 -0.032463484 0.23157775
0.025446974 -0.032625593 0.23000002
-0.010669582 -0.029623369 0.2306
-0.0096551608 -0.029767107 0.23275001
0.023742134 -0.029695401 0.23
-0.01578882 -0.020869313 0.23
-0.01559359 -0.015575888 0.2307778
-0.013446232 -0.015466356 0.23018751
0.029615838 -0.016689347 0.23
0.030082004 -0.015896864 0.23
-0.015822323 -0.012417329 0.23225804
-0.012635659 -0.012232762 0.23203571
-0.0078341663 -0.012012345 0.23126528
-0.0031519723 -0.011294465 0.23041169
0.0023929544 -0.011396306 0.23052529
0.0071276003 -0.010973327 0.23109375
0.012356693 -0.010752575 0.23
0.017226767 -0.010456421 0.23
0.022882521 -0.010525267 0.23004545
0.027440524 -0.011105683 0.23106818
-0.01549428 -0.0090592206 0.23400001
-0.012065088 -0.0084058931 0.23377556
-0.0072330115 -0.0076051354 0.23326123
-0.0023732511 -0.0075208587 0.23258045
0.0025186634 -0.0075028893 0.23222527
0.0078024813 -0.007852261 0.23186366
0.012616588 -0.0075975852 0.23164825
0.017521843 -0.007418856 0.23181425
0.022532741 -0.0075235213 0.23178825
0.027394952 -0.0074111358 0.23299022
-0.0050602481 -0.0047907531 0.23400001
-0.002493588 -0.0044782897 0.23399998
0.0027959635 -0.0044559715 0.23399998
0.0074605895 -0.0047907531 0.23400001
0.013607183 -0.0046389857 0.23400001
0.017867517 -0.0042487253 0.23400009
-0.010035403 -0.035675522 0.23500001
-0.0076149772 -0.036114786 0.23693749
0.0192458 -0.037057824 0.23900001
0.021068653 -0.036718581 0.23740539
-0.0076407315 -0.03262037 0.23668294
0.021235671 -0.033259802 0.23678951
-0.0087017603 -0.029959913 0.23500001
0.029529061 -0.012255354 0.23525001
0.030473247 -0.011494901 0.23528577
-0.01546344 -0.0071394267 0.2355385
-0.012898888 -0.0062552448 0.23541175
-0.0083445348 -0.0054780468 0.23500007
0.0067746504 -0.0058240881 0.23590004
0.012064962 -0.0053192805 0.23500001
0.030442853 -0.0075957547 0.23500007
-0.005517548 -0.04030478 0.24300002
-0.0022418813 -0.041017991 0.24319614
0.017923592 -0.040251814 0.24033335
-0.005672005 -0.037354764 0.24064998
-0.0029704724 -0.037252504 0.24282764
0.017982921 -0.037498318 0.24144995
-0.0057972814 -0.033004604 0.2405294
-0.0034945391 -0.033421822 0.24269392
0.01864234 -0.033444643 0.24183337
0.02049377 -0.032153949 0.24000001
0.0018827163 -0.045229703 0.24900003
0.012631491 -0.045276504 0.24866669
-0.00053105981 -0.042953834 0.245
0.0013133077 -0.042235527 0.24753337
0.013506371 -0.042604983 0.24780852
0.015626766 -0.041737963 0.24626313
-0.00053160341 -0.03757564 0.24554996
0.00068974041 -0.038845401 0.24795
0.014242887 -0.038271166 0.24790911
0.015615838 -0.037232883 0.24582757
-0.0015525733 -0.033561587 0.24500002
0.016085036 -0.033666749 0.2472105
0.0037375137 -0.045844197 0.25015
0.0074221431 -0.046986174 0.25306591
0.01067528 -0.04610857 0.2527
0.0036578921 -0.042298075 0.25082701
0.0068612271 -0.043605078 0.25353333
0.011147464 -0.042319119 0.25181082
0.0025381874 -0.037638392 0.25252503
0.012760719 -0.037449736 0.25146157
-0.00040750226 -0.033705879 0.25083333
0.0013374863 -0.033829227 0.25296301
0.013733883 -0.034129821 0.25170001
0.0077521768 -0.041558921 0.2554833
0.010210808 -0.040417843 0.25533336
0.0044436171 -0.03618855 0.25515389
0.0075174812 -0.037306946 0.25737494
0.010872562 -0.037313528 0.25586367
0.0037625104 -0.034278043 0.25536847
0.0074833245 -0.033948336 0.25864699
0.011135857 -0.034347229 0.25670001
0.0082895439 -0.033568714 0.26000002
