# .PCD v0.7 - Point Cloud Data file format
VERSION 0.7
FIELDS x y z
SIZE 4 4 4
TYPE F F F
COUNT 1 1 1
WIDTH 130
HEIGHT 1
VIEWPOINT 0 0 0 1 0 0 0
POINTS 130
DATA ascii
0.014368737 -0.070349149 0.289
0.017113388 -0.070349157 0.289
0.016524293 -0.069646254 0.289
-0.021612348 -0.071587935 0.294
-0.017526295 -0.07150951 0.29399994
-0.012403009 -0.071228981 0.29320011
-0.0075796451 -0.071158707 0.29268432
-0.002807501 -0.070982605 0.29192585
0.0024984833 -0.070523933 0.29086357
0.0072863633 -0.070566319 0.29017645
0.012452209 -0.070901915 0.29006249
0.017799444 -0.071706235 0.29069996
0.020923462 -0.070835486 0.29092306
-0.021506416 -0.068414696 0.29400006
-0.017631851 -0.068992041 0.29400003
-0.012181917 -0.068379559 0.29385713
-0.0073760431 -0.067577973 0.29333892
-0.002624959 -0.067478187 0.29285133
0.0023644583 -0.067663804 0.29198334
0.0074754297 -0.067613281 0.29092523
0.012613116 -0.067537285 0.29070279
0.017491581 -0.067437559 0.29058465
0.020900678 -0.06743183 0.29096967
-0.005404335 -0.064654022 0.294
-0.0020671082 -0.064376406 0.29386961
0.0028440093 -0.06358172 0.29366663
0.0075600389 -0.062742911 0.29308206
0.012512239 -0.062667817 0.29313511
0.017531548 -0.062425006 0.29289332
0.021004234 -0.06290289 0.29260719
0.0098502673 -0.059886958 0.294
0.012412564 -0.059886958 0.294
0.016905522 -0.059886958 0.294
-0.019313432 -0.075449854 0.29900002
-0.021207534 -0.073483832 0.29500002
-0.017937798 -0.073977575 0.29633337
-0.021794435 -0.066157043 0.29512507
-0.017432194 -0.066577919 0.29614511
-0.012711648 -0.066205397 0.2956765
-0.0089076776 -0.065625593 0.29500005
-0.021585062 -0.06416975 0.2974737
-0.017467298 -0.062827766 0.29851785
-0.012358659 -0.062596843 0.29780605
-0.0075285882 -0.062358625 0.29668921
-0.0025553177 -0.061747976 0.29604623
0.0020563891 -0.061131302 0.29547369
0.0069075101 -0.060196951 0.29500005
0.018615713 -0.060075819 0.29540002
0.021330036 -0.060943406 0.29566669
-0.022949535 -0.056542125 0.29900002
-0.0067790821 -0.058970541 0.29889998
-0.002183778 -0.058247972 0.29832345
0.0025643539 -0.057512823 0.29757819
0.0075066173 -0.057340957 0.29666191
0.012164917 -0.057957549 0.29658824
0.017256903 -0.057644203 0.29682457
0.003605735 -0.054474667 0.29888892
0.0065852958 -0.054563388 0.29878578
0.010017789 -0.054602869 0.29900002
-0.016757771 -0.076818213 0.30134487
-0.014541933 -0.076861657 0.30312502
-0.021936139 -0.061984092 0.30028582
-0.017878184 -0.060784843 0.29999998
-0.013589449 -0.060622703 0.30000001
-0.021476503 -0.057282969 0.3010962
-0.017481731 -0.057444181 0.301507
-0.01268807 -0.057575919 0.30114681
-0.0078369435 -0.056858644 0.30073211
-0.0025209135 -0.056211304 0.30024004
0.0010522453 -0.05527192 0.30000001
0.013320092 -0.056443699 0.30044007
0.018040784 -0.055888657 0.30037501
-0.020375783 -0.054530121 0.30400002
-0.01742138 -0.053843621 0.30378121
-0.012420588 -0.053349108 0.30340916
-0.0072683515 -0.052895442 0.30273458
-0.0023543586 -0.052539404 0.30239755
0.0024907773 -0.052127857 0.30110168
0.0073732217 -0.052145172 0.30073681
0.012365228 -0.052616239 0.30127284
0.017322574 -0.052470781 0.30119416
-0.0011928998 -0.048847802 0.30391666
0.0027400001 -0.048439633 0.30357146
0.0075450772 -0.048258796 0.30339137
0.012441624 -0.048994645 0.30353841
0.017252333 -0.048557539 0.30305564
-0.012063527 -0.081009865 0.30746669
0.014079025 -0.081751488 0.30881822
0.015729567 -0.081050299 0.30800006
-0.012535975 -0.078750364 0.30742866
0.014379678 -0.078722119 0.30822223
0.016344512 -0.078376345 0.30675006
-0.021647504 -0.052378133 0.3065455
-0.017485699 -0.051351018 0.30539998
-0.01242826 -0.050898388 0.30540004
-0.0076296655 -0.050438449 0.30500007
-0.0046174536 -0.050258614 0.30500001
-0.021441607 -0.049113862 0.30868751
-0.017407948 -0.048766576 0.30817652
-0.007300273 -0.047371022 0.30672577
-0.0027459711 -0.047058437 0.30554548
-0.0057577854 -0.085267611 0.31325001
-0.010247026 -0.08156614 0.31075001
-0.0077018351 -0.082615301 0.31262749
0.012655521 -0.081473902 0.31088892
-0.010557394 -0.079565994 0.31
-0.0087622348 -0.079277351 0.31183335
0.013402234 -0.079733543 0.31
-0.0023927195 -0.08705654 0.31839404
0.0090040592 -0.085915506 0.31800005
0.010331173 -0.085375801 0.31600001
-0.0056973631 -0.081974506 0.31553337
-0.0036932102 -0.083052404 0.31783336
0.0094512543 -0.083736926 0.31800002
0.010736753 -0.083144099 0.31590003
-0.0059306188 -0.079548463 0.31575003
-0.004297426 -0.0798572 0.31800002
0.0031339265 -0.090809152 0.32225001
0.0055846088 -0.09058398 0.32300001
-0.00029018955 -0.087149814 0.32022223
0.0021408375 -0.087530874 0.32212508
0.006677968 -0.087773003 0.32232001
-0.0015926217 -0.082491651 0.32084846
0.0013411379 -0.083245248 0.32314283
0.0080000348 -0.08391881 0.322
0.0056191883 -0.090442248 0.32500002
0.0043394016 -0.085850075 0.32500002
0.0059109223 -0.086469546 0.3254616
0.0038173306 -0.083193459 0.32535717
0.0060602142 -0.083145395 0.32650006
