# .PCD v0.7 - Point Cloud Data file format
VERSION 0.7
FIELDS x y z
SIZE 4 4 4
TYPE F F F
COUNT 1 1 1
WIDTH 105
HEIGHT 1
VIEWPOINT 0 0 0 1 0 0 0
POINTS 105
DATA ascii
-0.0670693 -0.077089772 0.30748072
-0.064098842 -0.078002043 0.30888239
-0.067861676 -0.073724084 0.30880648
-0.06480138 -0.074967086 0.30900002
-0.062022369 -0.081537344 0.31338897
-0.063144699 -0.077376284 0.31276929
-0.071432047 -0.071294814 0.31266671
-0.066970214 -0.071838558 0.31156373
-0.064352751 -0.07308314 0.3133685
-0.071299814 -0.068989962 0.31333336
-0.068147041 -0.069046922 0.31347832
-0.058795046 -0.085496679 0.31900001
-0.060648173 -0.082075603 0.31575
-0.059127219 -0.082741246 0.31817243
-0.073611557 -0.076860547 0.31500003
-0.061321866 -0.077247493 0.31635135
-0.059211075 -0.077940136 0.31858075
-0.072699502 -0.073868975 0.31500003
-0.062151633 -0.072355501 0.31722227
-0.059553672 -0.073979408 0.31900001
-0.071821712 -0.067278698 0.31571999
-0.067243747 -0.066783659 0.31581473
-0.063373156 -0.067876726 0.31776482
-0.071096227 -0.062644258 0.31787995
-0.06779708 -0.062844612 0.31761113
-0.064359315 -0.064038947 0.31900001
-0.052887049 -0.090163969 0.324
-0.056939144 -0.086586975 0.32118186
-0.053810429 -0.087245233 0.3231515
-0.056671441 -0.082476273 0.32104647
-0.054583352 -0.083160162 0.32333329
-0.056917075 -0.07746242 0.32165998
-0.054813329 -0.07886894 0.324
-0.058557265 -0.07246387 0.32182223
-0.061184999 -0.066645034 0.32105708
-0.059296362 -0.068463542 0.32283333
-0.07242658 -0.060772739 0.32000002
-0.06651973 -0.060895938 0.32050005
-0.062845543 -0.062436875 0.32220763
-0.070977353 -0.05839156 0.32107693
-0.067592263 -0.057602745 0.32144058
-0.063997597 -0.058400784 0.32347995
-0.070508152 -0.054449193 0.32250002
-0.051046729 -0.091149919 0.32850003
-0.051785037 -0.087617882 0.32718748
-0.053043921 -0.082509026 0.32697678
-0.055858366 -0.076067388 0.32550001
-0.054037031 -0.077701017 0.32718423
-0.056226157 -0.072211243 0.32658979
-0.054394931 -0.073611356 0.32808337
-0.057748344 -0.067618795 0.32702008
-0.060875226 -0.061732344 0.32583338
-0.058954958 -0.062991649 0.32759383
-0.062035635 -0.05739085 0.32696497
-0.059393421 -0.059281234 0.32900003
-0.04811085 -0.09538383 0.33400005
-0.050298054 -0.091812648 0.33077782
-0.048436958 -0.092149094 0.33314821
-0.050524071 -0.087408938 0.3308095
-0.048979625 -0.087564133 0.33310002
-0.050893936 -0.082349218 0.33186111
-0.049389906 -0.084696352 0.33350003
-0.052368157 -0.077629268 0.33182761
-0.053707544 -0.07275793 0.33070591
-0.055991586 -0.067287855 0.33033335
-0.054924171 -0.069570556 0.33100003
-0.058022194 -0.062403318 0.33153334
-0.04635375 -0.09539783 0.33500001
-0.046762388 -0.092441954 0.33555555
-0.047652151 -0.087708518 0.33554167
-0.050205957 -0.080811605 0.33533335
-0.04903223 -0.082137272 0.33713636
-0.051006146 -0.077309087 0.3374286
-0.049691252 -0.07962741 0.33800003
-0.052516453 -0.072877496 0.33771428
-0.055471256 -0.067013405 0.33566666
-0.054518927 -0.067778386 0.33800003
-0.054796122 -0.064286165 0.33850002
-0.076805167 -0.10016389 0.34200001
-0.07182274 -0.10036553 0.34200001
-0.067613699 -0.10030662 0.34224999
-0.063403875 -0.10016389 0.34200001
-0.08234933 -0.097475044 0.34099984
-0.077541463 -0.097326137 0.34184197
-0.072372481 -0.09742298 0.34267354
-0.06762071 -0.097242974 0.34319657
-0.062719822 -0.097628534 0.34231707
-0.057771046 -0.098294072 0.34074995
-0.053830747 -0.098645188 0.33999997
-0.081800371 -0.093413755 0.34099999
-0.077476084 -0.092444845 0.34216663
-0.072959714 -0.092891224 0.34358141
-0.068738893 -0.093777418 0.34400007
-0.064701587 -0.094895199 0.34300002
-0.076380894 -0.08988978 0.34300002
-0.048495445 -0.080952242 0.3405
-0.050353356 -0.07532125 0.34
-0.048942108 -0.077651411 0.34205884
-0.051472537 -0.071728282 0.34138465
-0.049605966 -0.073728874 0.34246156
-0.052610952 -0.06744013 0.34205556
-0.046965905 -0.080461159 0.34550002
-0.046953827 -0.077538855 0.34625936
-0.050956205 -0.070529878 0.34533334
-0.048746366 -0.072010636 0.34671879
