# .PCD v0.7 - Point Cloud Data file format
VERSION 0.7
FIELDS x y z
SIZE 4 4 4
TYPE F F F
COUNT 1 1 1
WIDTH 183
HEIGHT 1
VIEWPOINT 0 0 0 1 0 0 0
POINTS 183
DATA ascii
0.0049099606 0.014326341 0.15400001
0.0075384169 0.014221202 0.15399995
0.012315037 0.014398973 0.15349995
0.017330414 0.014569758 0.15283719
0.022402199 0.0144154 0.15199997
0.027831558 0.014326528 0.15211865
0.031131947 0.014000456 0.15361291
0.0079063987 0.015759012 0.15400004
0.012523671 0.016248563 0.15380795
0.01767242 0.01682662 0.15336914
0.022445176 0.017294683 0.15285282
0.027572677 0.017153155 0.15274227
0.030660514 0.016973874 0.15351351
0.023042265 0.020261599 0.15400003
0.027682904 0.020069517 0.15400003
0.028427014 0.0098930821 0.15900002
-0.011931987 0.013892278 0.15827064
-0.0075267437 0.013774562 0.1565304
-0.0026080639 0.013973857 0.15570214
0.0021666773 0.014165688 0.15501429
0.028923612 0.012089454 0.15752432
0.031002713 0.012459969 0.15659575
-0.011495767 0.016354647 0.15867241
-0.0073630009 0.017163713 0.1576342
-0.002521585 0.017508971 0.15684596
0.0024699019 0.017470088 0.15681551
0.0072841304 0.018168971 0.15573616
0.012316469 0.01868172 0.15570705
0.017063972 0.019185152 0.15507415
0.023188023 0.019646922 0.155
0.026917055 0.019540111 0.15499999
0.031529538 0.018018233 0.15537216
-0.0055008582 0.02059222 0.15900001
-0.0025895697 0.020893581 0.15885486
0.0026309455 0.021384295 0.15886423
0.0076330518 0.022250289 0.15808176
0.012497507 0.022406731 0.15767717
0.017499221 0.022517538 0.15711223
0.022397894 0.022683783 0.15629417
0.027429819 0.022600183 0.15592019
0.03104059 0.022290688 0.15726368
0.009967776 0.025490619 0.15900001
0.012341411 0.025530629 0.15899996
0.018138099 0.02599857 0.15895234
0.022544801 0.026544176 0.15846099
0.027435286 0.0267286 0.15840967
0.030531436 0.026320448 0.15894999
-0.010627559 0.0095421877 0.16307144
-0.0096626086 0.0099382671 0.164
0.027496163 0.0083656637 0.16273502
-0.011681996 0.011654963 0.16180639
-0.0092033288 0.011715258 0.16340001
0.027089603 0.011592333 0.16292006
0.03021824 0.010430252 0.16066669
-0.011779035 0.01865132 0.16041094
-0.0081497328 0.019484444 0.16000004
-0.011370584 0.022218322 0.16266668
-0.0074495398 0.022588169 0.16145554
-0.0023878478 0.023283895 0.16091536
0.002373256 0.02373635 0.160219
0.006745846 0.024305554 0.16004767
-0.010859238 0.02509558 0.164
-0.0068620984 0.025913371 0.16371116
-0.0022766518 0.026582284 0.16266391
0.0026054233 0.027271938 0.16240463
0.0074891821 0.027572773 0.16153477
0.012431021 0.027849169 0.16133334
0.017169468 0.027935343 0.16072413
0.02227168 0.02895399 0.160375
0.027402509 0.029106287 0.16036363
0.031111555 0.027997317 0.16012722
0.0044975155 0.03014802 0.164
0.0078994734 0.030658592 0.16341031
0.012218465 0.03077195 0.16366039
0.017761137 0.031504884 0.16289997
0.022596885 0.0323321 0.16275571
0.027492652 0.032548156 0.16284449
0.030565815 0.032057166 0.16325809
0.026543127 0.035261821 0.16400002
0.0089061689 0.0032452652 0.16858333
0.024357196 0.0046464866 0.16816668
0.025703833 0.0045997091 0.168125
-0.0075700074 0.0081600472 0.16692382
0.024482062 0.0068002162 0.16845459
0.025816441 0.0065737921 0.16684002
-0.0079943174 0.011322577 0.16643547
0.02637554 0.013100389 0.16558821
-0.01221856 0.024535168 0.16500001
-0.011040975 0.027660461 0.1666338
-0.0076650535 0.028144775 0.16566174
-0.0030648857 0.029008629 0.16521814
0.0018829887 0.029428903 0.16500001
-0.010780985 0.031562135 0.16866671
-0.0073360079 0.032188933 0.1679424
-0.0025762976 0.032553881 0.16738652
0.0023700511 0.03253701 0.16658796
0.0073541896 0.033157151 0.1656937
0.012426082 0.033099663 0.16574198
0.017316477 0.033888716 0.16563018
0.021045489 0.034567889 0.16500002
0.031437516 0.033633519 0.16565619
-0.005430798 0.0046091522 0.171
-0.0032569214 0.0039826655 0.17237249
0.0088642603 0.0021482182 0.1705
0.022705313 0.0029735684 0.17295422
-0.0054123383 0.0080951983 0.17064519
-0.003689887 0.0072096293 0.17259261
0.023134463 0.0063357889 0.17304763
-0.005960552 0.011643202 0.17084482
-0.004355683 0.011724576 0.17349994
0.024751689 0.010871142 0.17025001
0.025329931 0.012585179 0.17022222
-0.011020027 0.033479881 0.17026319
0.0021478671 -0.00080710842 0.17819998
0.0092866542 -0.00056883309 0.17900001
0.019303907 -0.00090961979 0.17791304
0.021017432 -0.00074371876 0.17713046
-0.0008485195 0.0027667112 0.17569116
0.0012339269 0.0023276128 0.17752276
0.0094271842 0.00039640506 0.178
0.019665852 0.00090719335 0.17784616
0.021045169 0.0015495396 0.17559262
-0.001289663 0.0076682512 0.17663442
0.00067110598 0.0060989405 0.17889997
0.022543568 0.0078541199 0.17572309
-0.0026329511 0.012114033 0.17657836
0.023415318 0.012376412 0.17740551
0.023757111 0.015529599 0.17833334
0.016010238 -0.0052588219 0.18400002
0.004083551 -0.0016795337 0.18155362
0.0071691587 -0.0024443925 0.18317309
0.017207814 -0.0029550765 0.18338893
0.0035966134 0.0025187584 0.18164839
0.0058411378 0.0012618953 0.18386209
0.019231509 0.0027525923 0.1813913
0.020090507 0.0037970617 0.18012503
-9.8851502e-05 0.0095010418 0.18100001
0.002468423 0.0075256298 0.18194325
0.019751512 0.0072086048 0.18273336
0.020547887 0.0077403327 0.18200004
-0.00064821378 0.012634858 0.18091841
0.001343985 0.012194691 0.18297954
0.019888747 0.010777317 0.18400002
0.021115784 0.012529055 0.18368629
0.0013060023 0.015156623 0.18400003
0.011385862 0.0159238 0.18400002
0.018695362 0.015783401 0.18400002
0.021226715 0.015603483 0.18375003
0.0087955296 -0.0062167412 0.18511108
0.01238445 -0.0065278918 0.18690687
0.015524696 -0.0058990275 0.18533333
0.0081762131 -0.0036938211 0.18499996
0.012309956 -0.0031469045 0.1880549
0.015945552 -0.0012464506 0.18523809
0.0048484402 0.0037116446 0.185
0.0060649784 0.0013785583 0.185
0.010622672 0.00011444798 0.18900001
0.017027305 0.0024121727 0.18668085
0.004518318 0.0089631286 0.1855
0.0057568038 0.0082055721 0.18856765
0.010316217 0.0096145226 0.18900001
0.017717846 0.0066656214 0.18849027
0.0037658985 0.012901074 0.18598858
0.0070543895 0.01325309 0.18798459
0.012486828 0.013276241 0.1871186
0.017545052 0.013419665 0.18779169
0.020438412 0.013595151 0.18520001
0.0032811884 0.015288044 0.18585716
0.0068653305 0.015266421 0.18652633
0.013184401 0.015599858 0.18499996
0.017079722 0.015643684 0.18672499
0.013009192 -0.001109349 0.19000004
0.013136171 0.0023506789 0.19215626
0.015474036 0.0039648991 0.19140001
0.0079358444 0.009146722 0.19068967
0.01296407 0.0070954096 0.19380966
0.016912529 0.0085634189 0.19069488
0.0076055443 0.012213209 0.19042346
0.012576739 0.011176329 0.19125001
0.017224394 0.011411444 0.1902698
0.013700153 0.0082086381 0.19500002
0.015070275 0.0080226501 0.19500001
0.014754092 0.010552112 0.19500001
