# .PCD v0.7 - Point Cloud Data file format
VERSION 0.7
FIELDS x y z
SIZE 4 4 4
TYPE F F F
COUNT 1 1 1
WIDTH 128
HEIGHT 1
VIEWPOINT 0 0 0 1 0 0 0
POINTS 128
DATA ascii
-0.001245636 -0.062385786 0.27899998
0.00075239583 -0.06282559 0.27900001
-0.0013587321 -0.059847396 0.27900004
-0.0057577556 -0.065908596 0.28400004
0.0045414343 -0.06590423 0.28250003
0.0059069619 -0.065951884 0.28320003
-0.0056779296 -0.062738754 0.28384614
-0.0037567012 -0.062556535 0.28117245
0.0030649807 -0.062404253 0.28209597
0.0055670557 -0.063735403 0.28355557
-0.0052205143 -0.05923146 0.28400001
-0.0021265591 -0.057735179 0.2822223
0.0017164308 -0.05788441 0.28314292
-0.0013063336 -0.054453865 0.28400001
0.00091937691 -0.05447305 0.28400004
-0.0066252365 -0.066525757 0.28500006
0.0082119443 -0.06657058 0.28778574
-0.0068716332 -0.062393639 0.28524002
0.0049275961 -0.06036425 0.28500003
0.0071589993 -0.062580265 0.28716663
-0.0055904821 -0.059029236 0.28525001
-0.0044687074 -0.056667343 0.28500003
0.0042084302 -0.057040147 0.28667742
0.0060850228 -0.058571249 0.28835008
-0.0024378954 -0.052377705 0.28662503
0.0021824506 -0.052794259 0.28719664
-0.001887152 -0.048210237 0.28841862
0.0010270647 -0.048666801 0.28882354
-0.011307971 -0.070981219 0.29322222
0.0097497553 -0.070364155 0.29100001
0.012608901 -0.071243197 0.29277787
-0.010831321 -0.069540359 0.29250002
0.0094630541 -0.068006352 0.28999999
0.011824216 -0.067499779 0.29231918
0.0092943013 -0.061830051 0.29081815
0.01128084 -0.062893234 0.29291433
-0.0071312776 -0.056436259 0.2907857
0.0079362858 -0.057332844 0.29173684
0.010326974 -0.059648603 0.294
-0.0058677122 -0.053675149 0.29037499
0.0039605401 -0.051367972 0.29031247
0.0063267406 -0.052823797 0.29225531
-0.005404335 -0.046539184 0.294
-0.0030344848 -0.046556599 0.29054999
0.0027744465 -0.047083545 0.29158932
0.0055870209 -0.049052265 0.29346153
-0.0020137851 -0.042500883 0.29220587
0.0014842777 -0.043357257 0.29289186
-0.015141706 -0.073586874 0.29800004
-0.013743369 -0.071692728 0.29668185
0.014393721 -0.071843848 0.29500005
0.016157381 -0.072360888 0.29730302
-0.013537844 -0.067664042 0.29764512
0.013967179 -0.067357354 0.29563162
0.015673349 -0.068617076 0.29762501
-0.012768449 -0.064056732 0.29900002
0.01331195 -0.062030852 0.29671112
0.0094219251 -0.055879451 0.29550004
0.011607474 -0.057606518 0.29735714
0.0089336978 -0.052288376 0.29643247
0.010540292 -0.053026937 0.2988182
-0.006283049 -0.046288241 0.29544446
-0.0049443892 -0.045262497 0.29500002
0.0046221665 -0.045501661 0.29500002
0.0072185867 -0.047481399 0.29709262
-0.0059210486 -0.044935983 0.296
0.019048247 -0.076173894 0.30214286
0.020668095 -0.077007309 0.30399999
0.018471872 -0.07251218 0.30173531
0.020254979 -0.072909027 0.30400005
-0.015667628 -0.065266848 0.3035
0.017548865 -0.068014354 0.30260006
-0.015747946 -0.062584229 0.30294445
-0.013544829 -0.062104106 0.30121434
0.014838244 -0.061287582 0.30040002
0.016247261 -0.062667653 0.30268747
0.013852249 -0.057107251 0.30114824
0.015638469 -0.058112986 0.30315
0.012298302 -0.052488286 0.3019788
0.0090049161 -0.046310823 0.30025002
0.010815489 -0.047732271 0.30245164
0.019621853 -0.081730962 0.30900002
0.022491027 -0.08035861 0.30600005
0.022637364 -0.077577539 0.30571878
0.019615119 -0.07053484 0.30500001
0.021937614 -0.072538935 0.30663639
0.019144416 -0.066893689 0.30600005
0.021268072 -0.067726858 0.30812901
0.018820779 -0.062374804 0.3066667
0.021120228 -0.063857883 0.30892861
-0.013586514 -0.055972509 0.30650002
0.014669696 -0.055204034 0.30500001
0.017153058 -0.057198286 0.30686116
0.014256461 -0.051807482 0.30555561
0.015996309 -0.052834149 0.3077392
-0.010828733 -0.085072786 0.31300002
-0.0074936426 -0.085072793 0.31300002
-0.0026450725 -0.085072786 0.31299999
0.0015546052 -0.085072786 0.31300002
-0.016593844 -0.082498647 0.31147996
-0.012349891 -0.08263766 0.31257626
-0.0073686903 -0.08216837 0.31324136
-0.0026501792 -0.082449444 0.31337932
0.0026917642 -0.082528405 0.31338093
0.0076700896 -0.082538106 0.31237885
0.012542163 -0.082494669 0.31123075
0.017003532 -0.082612485 0.31035906
0.020439327 -0.082749441 0.31
-0.011231897 -0.079134762 0.31293336
-0.0072723059 -0.078010954 0.31390488
-0.004074859 -0.079065248 0.31400001
0.0042834459 -0.079107672 0.31400001
0.0075436719 -0.078768589 0.31325811
0.012361501 -0.07960207 0.31145459
0.02270125 -0.065785021 0.31
0.019936677 -0.060632866 0.31
0.021143038 -0.062442403 0.31
0.019056061 -0.057105642 0.31119999
0.02017249 -0.056432173 0.3136667
-0.016358955 -0.05470039 0.31200001
0.01814138 -0.052663624 0.31193334
-0.001193548 -0.080508813 0.31500003
0.0011048577 -0.080508813 0.31500003
-0.0053647286 -0.076422758 0.31500006
-0.0022257434 -0.077368267 0.31541368
0.0022852083 -0.077772193 0.31527647
0.0054462901 -0.07795503 0.31500003
-0.0022220938 -0.074615866 0.31600001
