# .PCD v0.7 - Point Cloud Data file format
VERSION 0.7
FIELDS x y z
SIZE 4 4 4
TYPE F F F
COUNT 1 1 1
WIDTH 195
HEIGHT 1
VIEWPOINT 0 0 0 1 0 0 0
POINTS 195
DATA ascii
0.0042672157 -0.021551151 0.21282353
0.0074262121 -0.021295583 0.21110359
0.012344937 -0.021701356 0.21240909
0.0044766972 -0.019093771 0.21345456
0.0075340937 -0.01752736 0.21208568
0.011586416 -0.017971544 0.21254431
0.0075521749 -0.014112378 0.21361908
0.010986816 -0.014790996 0.21400002
-0.00029715363 -0.02507931 0.21900001
0.00059059029 -0.02507931 0.21900001
0.016619248 -0.025351452 0.21828572
-0.00065214204 -0.023956578 0.21879999
0.0021321415 -0.022592595 0.21635063
0.005460368 -0.023226794 0.215
0.014634799 -0.02246554 0.21545458
0.016351761 -0.022832192 0.21744826
0.0028994307 -0.017908631 0.21704917
0.013793885 -0.01718674 0.21623078
0.015510242 -0.01827806 0.21823333
0.0042878776 -0.01375833 0.21705264
0.0076005291 -0.011786903 0.21571593
0.012258695 -0.01266221 0.21735288
0.0079819122 -0.0075670332 0.2179368
0.011590718 -0.0087919189 0.21822226
0.0088022221 -0.0047055888 0.219
-0.0022824937 -0.026457086 0.22317246
0.018731227 -0.026298784 0.22103128
0.020907504 -0.026742555 0.22330771
-0.0015470767 -0.021904573 0.22274998
0.018694794 -0.022275476 0.22130878
0.020301118 -0.023271922 0.22369233
-0.00072554918 -0.018111762 0.22296301
0.0010427604 -0.016867191 0.22106253
0.017464908 -0.017618749 0.22201332
-0.00012233556 -0.014392549 0.22400001
0.0023487646 -0.012443473 0.22231507
0.014626142 -0.011566353 0.2202353
0.016112 -0.012677499 0.22235845
0.0036490746 -0.0081636077 0.22331996
0.0055950875 -0.0070540737 0.22031252
0.012852648 -0.0069892709 0.22231646
0.015443586 -0.0087333908 0.2236
0.0049492395 -0.0039929333 0.2234
0.0077838479 -0.0025197195 0.2211649
0.011713129 -0.0033034368 0.2228276
0.00844891 0.0013800139 0.22359523
0.010492075 0.0011034458 0.22366668
-0.0061543863 -0.030743204 0.22828573
-0.0046382276 -0.030538196 0.22725001
0.022848932 -0.030833738 0.22823077
-0.0060273549 -0.028128624 0.22808003
-0.0040703411 -0.027674848 0.22619511
0.022645118 -0.027527075 0.22684214
-0.003651371 -0.022624517 0.22607692
0.021584308 -0.022404978 0.22696082
-0.0022095111 -0.017042454 0.22622728
0.019237187 -0.016503353 0.22576922
0.020620175 -0.01759265 0.22773536
-0.0011690591 -0.012734624 0.22721952
0.00055155496 -0.011202801 0.22561538
0.018347632 -0.012363114 0.22677422
0.020297097 -0.014156843 0.22900002
-0.00024883696 -0.0096392138 0.22900002
0.0016212463 -0.0067987768 0.22710206
0.016803218 -0.0072904546 0.226742
0.0033111677 -0.0026919213 0.22737499
0.005311403 -0.00090060465 0.22600001
0.013395241 -0.0020034402 0.22603396
0.015718313 -0.002931928 0.228138
0.026810976 -0.035334006 0.23400001
-0.0083174547 -0.031977665 0.2334737
0.024277896 -0.032181829 0.23111998
0.026308939 -0.032534193 0.23270002
-0.0077388971 -0.026914455 0.2330334
0.024534022 -0.027362268 0.23145831
0.025602404 -0.027857559 0.2335238
-0.0062772878 -0.022875128 0.23262496
-0.0046420614 -0.022956036 0.23061539
0.023735285 -0.022560485 0.23179998
0.025293298 -0.024710264 0.23400001
-0.0056365365 -0.01797675 0.23362502
-0.0042830277 -0.016179776 0.23300003
0.022499168 -0.017531622 0.23198214
-0.0031631573 -0.012030878 0.23175859
0.019582357 -0.010833928 0.23020001
0.021118151 -0.012383617 0.23240741
-0.0015922578 -0.0076642511 0.23167269
0.00024732112 -0.0052682599 0.23
0.018992515 -0.0070457249 0.23137775
0.020492278 -0.0082125515 0.23333333
0.00094935787 -0.0022144141 0.23108333
-0.011358523 -0.036224004 0.23799999
-0.0097776093 -0.035938814 0.23800001
0.028396627 -0.036569923 0.2375
0.030290309 -0.036767177 0.23900001
-0.011006958 -0.032616265 0.23537499
-0.0092688324 -0.033081103 0.23550004
0.028353967 -0.032884173 0.23630558
0.030228976 -0.034057729 0.23700002
-0.010761066 -0.02745112 0.2366053
-0.0091193365 -0.027245693 0.23523816
0.026273975 -0.027140308 0.23546158
-0.010321161 -0.024105882 0.23866668
-0.0085394513 -0.023312356 0.23688234
0.024501212 -0.02009552 0.23550001
0.025534848 -0.02226687 0.23646671
-0.0061514364 -0.016744388 0.23510003
0.024343019 -0.017602723 0.23613048
0.025498603 -0.018603167 0.23839998
-0.0060831406 -0.012336249 0.23769769
-0.0047008325 -0.012717821 0.23500001
0.023294516 -0.012342948 0.23671432
-0.0054536117 -0.0090492489 0.23875
0.021714665 -0.0074700974 0.23700002
-0.011949431 -0.040664513 0.24315153
-0.0074611921 -0.041070145 0.24361549
-0.0025861883 -0.041327849 0.2440002
0.0024128368 -0.04155333 0.24400018
0.0073837838 -0.042264204 0.24400006
0.012683783 -0.041864082 0.24400015
0.017581848 -0.041761421 0.2439871
0.022604821 -0.041755803 0.24352498
0.027333299 -0.041539025 0.24274243
0.030606097 -0.040550027 0.2418
-0.015365219 -0.037298653 0.24243754
-0.012976483 -0.037964027 0.24187505
-0.0080756238 -0.037992347 0.24358347
-0.0027947952 -0.03937966 0.24399999
0.00046019236 -0.039415624 0.24400002
0.019648433 -0.039415624 0.24400002
0.023399038 -0.03886174 0.24399997
0.02758714 -0.038865503 0.24168968
0.030685548 -0.038778126 0.24150001
-0.015262093 -0.033505432 0.24133335
-0.014192444 -0.032636363 0.24110352
-0.0060677659 -0.034272388 0.24400002
0.02944795 -0.030902019 0.24162501
0.030474326 -0.030950435 0.24200001
-0.013365246 -0.026529601 0.2431111
-0.0001321661 -0.029675165 0.24200001
0.00026022483 -0.029282773 0.24200001
0.028945863 -0.027610993 0.24233335
0.030206237 -0.027871506 0.243
-0.010769238 -0.022144103 0.24150001
-0.0092057688 -0.021420931 0.24120001
0.027281426 -0.022521822 0.24150002
-0.010517077 -0.018487386 0.24350002
-0.0090424707 -0.017382482 0.2426177
0.024826013 -0.015453525 0.2405
0.026068397 -0.016825259 0.24208336
-0.010024104 -0.014688513 0.24400002
-0.0085439822 -0.01401989 0.24262503
0.024612915 -0.012139787 0.24011114
0.025664931 -0.013692707 0.24153335
-0.0059567033 -0.0074521163 0.24029998
0.0042360034 -0.040470988 0.245
0.0075861905 -0.040795416 0.24499993
0.011916273 -0.040530574 0.24499996
-0.0062647774 -0.036690444 0.24499993
-0.0025408326 -0.037162874 0.24543771
0.0024906495 -0.037341997 0.24585147
0.007359447 -0.03732406 0.24603616
0.012445524 -0.037379645 0.24611942
0.017476207 -0.037330076 0.24608257
0.021826155 -0.037136391 0.24550001
-0.0055629602 -0.034545265 0.245
-0.002057736 -0.033510197 0.24601722
0.0025410012 -0.032274745 0.24765897
0.007346666 -0.032594699 0.24851537
0.012571807 -0.033068921 0.24873836
0.016988376 -0.033188861 0.24857372
0.020756641 -0.034099735 0.24642858
-0.015229505 -0.027659506 0.245
-0.014208426 -0.027126251 0.24520002
0.0026725074 -0.029717386 0.24725002
0.0062976079 -0.028667318 0.24888238
0.011572503 -0.029726053 0.24900001
-0.013839112 -0.024878722 0.245
0.029320221 -0.02107683 0.24700001
0.03002353 -0.020558983 0.24800001
0.028339181 -0.017547719 0.24822862
0.030279171 -0.016671762 0.24900001
-0.010106269 -0.012932569 0.24600001
-0.0095470166 -0.012138953 0.2466667
0.03002353 -0.014728248 0.24800001
0.0089435866 -0.030453479 0.25
0.012271085 -0.030709034 0.25
0.008318169 -0.029169835 0.25
0.010538012 -0.029575195 0.25
-0.015377108 -0.021262301 0.25400001
-0.014485898 -0.020916676 0.25345454
-0.014141562 -0.019614909 0.25400001
0.029349755 -0.01676246 0.25011763
0.030481484 -0.016649134 0.25066671
-0.014610708 -0.019692132 0.25500003
