# .PCD v0.7 - Point Cloud Data file format
VERSION 0.7
FIELDS x y z
SIZE 4 4 4
TYPE F F F
COUNT 1 1 1
WIDTH 121
HEIGHT 1
VIEWPOINT 0 0 0 1 0 0 0
POINTS 121
DATA ascii
-0.055461828 -0.020863324 0.21400002
-0.05264587 -0.020716522 0.21400002
-0.051804557 -0.019704374 0.21400005
-0.081101581 -0.020798413 0.21900006
-0.077366151 -0.020994164 0.21829416
-0.072650887 -0.021034151 0.2174
-0.067477129 -0.020956563 0.21618424
-0.062740609 -0.020749936 0.21560614
-0.057883684 -0.020605754 0.21500003
-0.054849472 -0.020089287 0.215
-0.048013251 -0.020829849 0.21529168
-0.076662675 -0.018324403 0.21891069
-0.072367884 -0.017486099 0.21816683
-0.067500286 -0.017506527 0.21704999
-0.062675245 -0.017572341 0.21634679
-0.057501424 -0.017652731 0.21532501
-0.052703369 -0.017358236 0.21551369
-0.048182175 -0.017566791 0.21609339
-0.071210138 -0.014781483 0.21900001
-0.067282222 -0.014282095 0.21896665
-0.062147237 -0.013526124 0.21849155
-0.057706185 -0.013028027 0.21823077
-0.052771639 -0.013275936 0.21806794
-0.048632678 -0.013670945 0.2183158
-0.086636275 -0.022138359 0.22210635
-0.083785214 -0.021182019 0.22076923
-0.077528179 -0.022696797 0.22000003
-0.086755112 -0.017990388 0.22291996
-0.082492843 -0.01747321 0.22141519
-0.07820674 -0.01668895 0.22041459
-0.074674428 -0.015205695 0.22000001
-0.08533293 -0.013565645 0.22345455
-0.082016252 -0.01308677 0.22334476
-0.077321529 -0.012581453 0.22271881
-0.07259807 -0.012477684 0.22127102
-0.067532338 -0.012006126 0.22079068
-0.063034266 -0.011355487 0.22023909
-0.057027321 -0.010421465 0.22000001
-0.051963322 -0.010838588 0.21999992
-0.047855221 -0.011639218 0.22113726
-0.076168343 -0.0094892848 0.22399999
-0.072147653 -0.0087477984 0.22372724
-0.06736774 -0.0081500839 0.2230738
-0.062336635 -0.0078966944 0.22276041
-0.057431158 -0.0076991408 0.22192177
-0.052592088 -0.0076522599 0.22237623
-0.048987769 -0.0081463205 0.22256863
-0.06041434 -0.004803943 0.22400001
-0.057859801 -0.004392311 0.22400001
-0.052340019 -0.0048933467 0.22400001
-0.049760334 -0.0048281564 0.22400002
-0.085534081 -0.02569736 0.22549999
-0.083641008 -0.026596975 0.22766668
-0.085616566 -0.023884857 0.22522222
-0.083709657 -0.023976345 0.22710346
-0.088127553 -0.016429294 0.2255
-0.087072484 -0.011817767 0.22677144
-0.082550816 -0.010546319 0.22499993
-0.078925364 -0.0102613 0.22500001
-0.085730493 -0.0072304467 0.22681816
-0.082469523 -0.0075216084 0.22744645
-0.077577598 -0.0070456411 0.22662073
-0.072791353 -0.0061809658 0.22569498
-0.067347348 -0.0057849647 0.22504543
-0.063633054 -0.005731374 0.22499999
-0.047833651 -0.0069635669 0.22595924
-0.085469119 -0.0040611005 0.22807145
-0.080699787 -0.0045027309 0.22900002
-0.07712891 -0.0033046922 0.22885966
-0.072398432 -0.0026670108 0.22802383
-0.067534499 -0.0026415349 0.22683178
-0.062803425 -0.0025574099 0.22629133
-0.057443433 -0.0020847025 0.22565912
-0.052720226 -0.0023790845 0.22577897
-0.048586141 -0.002654338 0.22672087
-0.070813604 0.00055639574 0.229
-0.067684919 0.0011237597 0.22878852
-0.062534414 0.001276836 0.22857627
-0.081023648 -0.030346248 0.23116669
-0.079481646 -0.031137284 0.23339131
-0.081420995 -0.027318006 0.23134837
-0.079620913 -0.028225753 0.23350003
-0.08181683 -0.024637025 0.23078947
-0.079805858 -0.024899974 0.23400001
-0.085154459 -0.0054547265 0.23
-0.084259421 -0.0052309665 0.23
-0.085512921 -0.0020766514 0.23105261
-0.082705423 -0.0023093622 0.23120989
-0.078038678 -0.0011940784 0.23007496
-0.07391984 -0.0003735082 0.23
-0.075439863 -0.035378542 0.23900001
-0.076783642 -0.032285258 0.23681059
-0.078164101 -0.027403323 0.23669702
-0.076601885 -0.024834922 0.23700002
-0.075177871 -0.036061596 0.24075001
-0.072241522 -0.036393307 0.24166679
-0.075431213 -0.03212963 0.24000001
-0.073187672 -0.032728553 0.24154541
-0.076047122 -0.027724637 0.2410937
-0.07417234 -0.027998528 0.24337505
-0.066828869 -0.0409621 0.24706255
-0.064742669 -0.041335162 0.24800001
-0.070797279 -0.037319299 0.24517852
-0.067947179 -0.037672952 0.24698228
-0.071453176 -0.032019302 0.24696204
-0.069236808 -0.033554357 0.24850006
-0.072407633 -0.027998284 0.24736363
-0.065803707 -0.036884423 0.25079489
-0.06495402 -0.037074883 0.25300002
-0.070264257 -0.030453481 0.25
-0.067245118 -0.032284882 0.25099999
-0.070409618 -0.02788697 0.25013334
-0.06761644 -0.028198456 0.25139189
-0.066317685 -0.035333559 0.25749999
-0.066000007 -0.032684192 0.25663638
-0.064894043 -0.030561727 0.25600001
-0.06568557 -0.027992001 0.25568426
-0.064942397 -0.028720871 0.25709093
-0.067072585 -0.041103262 0.26166672
-0.066114828 -0.037330426 0.26233339
-0.066188589 -0.034135912 0.26111117
