# .PCD v0.7 - Point Cloud Data file format
VERSION 0.7
FIELDS x y z
SIZE 4 4 4
TYPE F F F
COUNT 1 1 1
WIDTH 165
HEIGHT 1
VIEWPOINT 0 0 0 1 0 0 0
POINTS 165
DATA ascii
-0.046274938 0.013433745 0.15733333
-0.042313304 0.013852823 0.15767153
-0.039690509 0.013105798 0.15900004
-0.045071784 0.015173343 0.155
-0.042990535 0.016830858 0.15739523
-0.043640111 0.021308886 0.15774074
-0.050215073 0.0099382671 0.164
-0.046675418 0.0079965098 0.16369389
-0.044695433 0.0081562987 0.16239999
-0.035372585 0.0098776687 0.163
-0.033946902 0.009769965 0.1639231
-0.047016334 0.011764966 0.16220878
-0.042767368 0.012718801 0.16127276
-0.037368469 0.01282787 0.16212158
-0.034507476 0.012028486 0.16347505
-0.041316766 0.018307138 0.16074786
-0.038307011 0.017129701 0.16269642
-0.042237282 0.022436993 0.16217992
-0.039157324 0.020496866 0.16380003
-0.043649592 0.025845811 0.16341181
-0.047005873 0.0036787612 0.16762504
-0.050642688 0.0067734448 0.16815998
-0.04826564 0.0074878428 0.16714734
-0.031605102 0.0090225739 0.16633892
-0.029131403 0.0083247991 0.16824324
-0.046535525 0.011413866 0.16595453
-0.04477134 0.012481912 0.16600001
-0.032290861 0.012642473 0.16660899
-0.029405778 0.011758029 0.16840005
-0.036158215 0.018069876 0.16560386
-0.033525549 0.016997807 0.16767177
-0.040432714 0.023741608 0.16545831
-0.037463605 0.022466403 0.16694483
-0.03445635 0.021133821 0.16851433
-0.045362845 0.028525833 0.16600001
-0.042243205 0.027739806 0.16644564
-0.038921662 0.027150925 0.16833735
-0.045426656 0.031575318 0.16814288
-0.042936791 0.031934772 0.16829324
-0.051297016 0.003595863 0.17215213
-0.047580812 0.0025976796 0.17156403
-0.025739169 0.0046802699 0.17210001
-0.024110837 0.004483738 0.17314999
-0.051067341 0.0052940343 0.17029999
-0.046693765 0.0072063799 0.17208619
-0.026619269 0.0075294361 0.17112747
-0.024254428 0.0073715928 0.17322217
-0.047065109 0.011309086 0.17338464
-0.030276138 0.014712207 0.17
-0.027442589 0.012385466 0.17223608
-0.024570009 0.010967458 0.17400001
-0.031295512 0.017922454 0.17101794
-0.028915364 0.017038658 0.17299995
-0.03591989 0.024525931 0.17010002
-0.032630734 0.022394748 0.17196746
-0.029462442 0.020803615 0.17400002
-0.040888529 0.029872762 0.17
-0.036815301 0.027731372 0.17130002
-0.033920225 0.026903432 0.17307137
-0.041085973 0.032999087 0.1704684
-0.037712373 0.032152206 0.17253856
-0.034716696 0.030978698 0.17400001
-0.050859492 -0.0014659949 0.17745999
-0.049751408 -0.00032148688 0.17600001
-0.018152948 -0.00028720393 0.1788182
-0.053320229 0.0016051541 0.17735715
-0.049367785 0.00055116788 0.17622225
-0.025065906 0.0037947686 0.17500001
-0.021466423 0.0032882213 0.17576148
-0.018574126 0.0023536026 0.17800908
-0.046902519 0.0086837029 0.17570002
-0.021830233 0.0076598139 0.17670467
-0.019358929 0.0063631111 0.17875753
-0.046809901 0.011140529 0.17576002
-0.025633527 0.013922191 0.17508332
-0.023166951 0.012387971 0.17727146
-0.026704062 0.01781147 0.17627539
-0.024256332 0.01673474 0.17796612
-0.030790815 0.023780635 0.1752052
-0.028254516 0.022330362 0.17724793
-0.031813346 0.027825739 0.17641127
-0.029107604 0.027062261 0.17810816
-0.052583765 -0.0055709048 0.18333335
-0.055493556 -0.00098251808 0.18400002
-0.052000996 -0.0033699118 0.18186113
-0.020984767 -0.00048527331 0.18400002
-0.01740594 -0.0021480133 0.18252173
-0.014719484 -0.0019770071 0.18400002
-0.021879809 0.00040976703 0.18400002
-0.016418098 0.0027454398 0.18082364
-0.014421138 0.0008572872 0.18400002
-0.020309681 0.0092296535 0.18000001
-0.017659936 0.0075331884 0.18176512
-0.020929478 0.01299379 0.18078575
-0.018940594 0.011857076 0.18284142
-0.022189392 0.017580384 0.18157744
-0.01979138 0.01502876 0.18400002
-0.026283724 0.023020297 0.18069151
-0.023280116 0.021873046 0.18269369
-0.026941402 0.027592756 0.1819845
-0.024550874 0.026087666 0.18376473
-0.056377396 -0.0060245162 0.18853849
-0.054627441 -0.006058272 0.18700001
-0.035180423 -0.0062739407 0.18900003
-0.032577738 -0.0060264557 0.18877621
-0.027925959 -0.0055956868 0.18761703
-0.023991799 -0.0052298144 0.18600003
-0.055649538 -0.0026990708 0.1850909
-0.03162159 -0.0037123084 0.18883345
-0.027509151 -0.002686454 0.18797639
-0.022593182 -0.0027035421 0.18576439
-0.018489093 -0.0028576597 0.18499999
-0.026130609 0.00061510841 0.18863639
-0.023727467 0.0004157392 0.18678573
-0.015364018 0.0025758126 0.18534207
-0.014486789 0.0028974919 0.18518181
-0.015603814 0.0078879409 0.18647371
-0.014464004 0.0076979361 0.18772729
-0.016725184 0.012599842 0.18661478
-0.014629143 0.011208083 0.18900001
-0.020433554 0.018564209 0.18513332
-0.018370707 0.017359074 0.18690842
-0.02129934 0.02321868 0.18598846
-0.019277332 0.022396708 0.18828306
-0.056276992 -0.0077598756 0.19191301
-0.052468758 -0.0070557031 0.193367
-0.047551885 -0.0068042139 0.19286279
-0.042665094 -0.0068254704 0.1917787
-0.03785881 -0.0064471029 0.19022487
-0.051484298 -0.0049155052 0.19400001
-0.046562783 -0.0037997675 0.19382231
-0.042432256 -0.003194113 0.19356741
-0.037339099 -0.0025756427 0.19152385
-0.03302427 -0.0018450344 0.19046578
-0.028970445 -0.00062432763 0.19000004
-0.036859483 0.00089736748 0.19361122
-0.032308523 0.001691848 0.19281636
-0.028696571 0.0015241 0.1907755
-0.050750323 0.0098688751 0.19400001
-0.05068741 0.010938384 0.19400001
-0.015551619 0.014356135 0.19054548
-0.014587427 0.013283862 0.19060002
-0.01600706 0.017668955 0.19122383
-0.014508482 0.01770803 0.19347061
-0.05345105 -0.005302194 0.19500002
-0.052537702 -0.0025489451 0.19588952
-0.047901198 -0.0018982651 0.19576129
-0.042820454 -0.0009050956 0.19508828
-0.055007193 0.0014040861 0.19800001
-0.052047703 0.0017837499 0.19850996
-0.047298305 0.0022791226 0.1979212
-0.042593569 0.0025304176 0.19693825
-0.037644148 0.0032179896 0.19535153
-0.034397952 0.0036392063 0.19500001
-0.050901514 0.0095366538 0.19781822
-0.046680517 0.0068696532 0.19900003
-0.042206205 0.0062758792 0.19883339
-0.038005963 0.0057775197 0.19640003
-0.050239459 0.010679618 0.19611114
-0.048726421 0.010664836 0.19800001
-0.052200392 0.0043088919 0.20048
-0.049189173 0.0044614007 0.20012502
-0.051755559 0.0071157962 0.20097534
-0.047663428 0.0076813623 0.20067206
-0.043632306 0.0076260371 0.20031029
