# .PCD v0.7 - Point Cloud Data file format
VERSION 0.7
FIELDS x y z
SIZE 4 4 4
TYPE F F F
COUNT 1 1 1
WIDTH 157
HEIGHT 1
VIEWPOINT 0 0 0 1 0 0 0
POINTS 157
DATA ascii
-0.037704736 0.014867816 0.109
-0.037057668 0.017526807 0.10700002
-0.036938742 0.020557662 0.10671429
-0.039271526 0.014379346 0.11300002
-0.040554188 0.016558573 0.11300001
-0.038728867 0.016745487 0.11169492
-0.040730305 0.022218477 0.11383334
-0.039392028 0.021377426 0.1134762
-0.039707985 0.019519132 0.11533334
-0.04090606 0.022583803 0.11535716
-0.039681949 0.021511253 0.11516668
-0.050479718 0.027827609 0.12900001
-0.049015544 0.026956078 0.12900001
-0.050534688 0.028599141 0.13021317
-0.048253458 0.028452445 0.13251083
-0.050954986 0.032697216 0.13182394
-0.048788343 0.032052681 0.13327624
-0.051475801 0.036491003 0.13352256
-0.049442735 0.035327859 0.13400002
-0.045377608 0.024650758 0.13900001
-0.042758171 0.024434209 0.13856097
-0.045683205 0.027666666 0.13589795
-0.043471884 0.02700243 0.13818961
-0.046619404 0.032610524 0.1369087
-0.044740763 0.031282257 0.1384286
-0.05106109 0.03860287 0.13532509
-0.048320126 0.037150923 0.13695796
-0.051393371 0.042349748 0.13782541
-0.049136136 0.042089798 0.13817501
-0.049434476 0.045160476 0.13900001
-0.040875815 0.023842467 0.14107141
-0.038518302 0.023195462 0.14348498
-0.041294146 0.027921658 0.14173338
-0.039433744 0.02650789 0.14338033
-0.045157414 0.033016678 0.14025715
-0.042757526 0.032246605 0.14209653
-0.039771743 0.030440738 0.14400001
-0.046151828 0.037947606 0.14114447
-0.043900698 0.036559537 0.14325963
-0.051530473 0.044653028 0.14
-0.047533542 0.042390872 0.14229056
-0.051444348 0.04747171 0.14155632
-0.048784133 0.0466705 0.14286949
-0.050806668 0.050761856 0.14386672
-0.063137949 0.019659504 0.149
-0.035339262 0.019529782 0.14720002
-0.03365602 0.019207075 0.14883058
-0.062965386 0.022248033 0.149
-0.040047936 0.021717945 0.14500001
-0.036291547 0.022574319 0.14624278
-0.03412066 0.02187472 0.14839351
-0.040047936 0.029241474 0.14500001
-0.037415791 0.0275041 0.14665185
-0.034871209 0.025578607 0.149
-0.040722121 0.033348896 0.14569862
-0.038654454 0.032136723 0.14763351
-0.045298737 0.039664697 0.14500001
-0.041927397 0.037777893 0.14650021
-0.039853651 0.036181394 0.14816667
-0.045643613 0.043440014 0.14580306
-0.043482948 0.042168237 0.14735933
-0.046920378 0.047975399 0.14673667
-0.044490684 0.046499975 0.14871114
-0.065462112 0.015922852 0.1533125
-0.064062268 0.018231167 0.15194543
-0.035818331 0.018896135 0.15133335
-0.031707548 0.017897375 0.15172128
-0.063572757 0.021173367 0.15000004
-0.032177299 0.022615137 0.15162422
-0.035528969 0.028809287 0.15066074
-0.033450522 0.027292222 0.15246463
-0.036630582 0.032612942 0.15173717
-0.034215949 0.03114525 0.15353331
-0.040397804 0.038792271 0.15026319
-0.038249075 0.037176557 0.15183499
-0.041183874 0.042954661 0.15125538
-0.039079789 0.041711174 0.15288679
-0.066449016 0.014234354 0.15832651
-0.045547437 0.01275048 0.15900004
-0.042612042 0.013594472 0.15802211
-0.037722267 0.013869817 0.1567789
-0.033431377 0.014272742 0.15552089
-0.065472245 0.016224261 0.15701726
-0.063085459 0.018123407 0.15660003
-0.041502487 0.016093347 0.15866666
-0.037606187 0.016979912 0.15767507
-0.032363541 0.016408956 0.15508693
-0.029785328 0.018795375 0.15499999
-0.06220175 0.021568244 0.15765002
-0.030666694 0.023212535 0.15554391
-0.029580189 0.022367207 0.15571161
-0.063260518 0.029673994 0.15816668
-0.031212142 0.027648419 0.15658528
-0.029658211 0.027204379 0.15866663
-0.062772125 0.030661356 0.15817648
-0.035533715 0.034071159 0.1553077
-0.032686725 0.032464553 0.15696207
-0.036196277 0.037884194 0.15600789
-0.033993747 0.037244782 0.15752172
-0.03704951 0.042760864 0.15690872
-0.034610413 0.040732302 0.15875001
-0.067535333 0.0094547588 0.16385718
-0.060186993 0.0099382671 0.164
-0.05836989 0.0099382671 0.16400002
-0.067042053 0.012365858 0.16181815
-0.060592864 0.010959951 0.16400002
-0.057488482 0.01203781 0.16372649
-0.052593708 0.012734649 0.16259615
-0.04796477 0.01299218 0.16043855
-0.066023722 0.016562819 0.16195837
-0.051985517 0.016085958 0.16398211
-0.0473691 0.017393412 0.16281031
-0.042983249 0.018014601 0.16123135
-0.039521046 0.018386843 0.16000003
-0.06370762 0.023818729 0.16174078
-0.045811091 0.021317378 0.1639412
-0.043625824 0.020942777 0.16331433
-0.06531658 0.027886756 0.16375002
-0.063653186 0.028518394 0.16358496
-0.059209801 0.028957473 0.16371429
-0.030311212 0.029931566 0.16000001
-0.029281991 0.028933043 0.16026926
-0.0626477 0.030511186 0.16264586
-0.030782171 0.033153679 0.16079451
-0.029336734 0.032499116 0.16227278
-0.031657208 0.037482582 0.1618
-0.029872362 0.035333417 0.164
-0.066610798 0.0090787327 0.16612814
-0.063299611 0.009436327 0.16546662
-0.066500731 0.012548191 0.16647422
-0.063137993 0.012573005 0.16632105
-0.057445381 0.014523482 0.16508821
-0.066737503 0.016974153 0.16802567
-0.062211983 0.016497307 0.16811113
-0.05755059 0.017263811 0.16650319
-0.052686468 0.018141925 0.16563645
-0.049252518 0.019102534 0.16506249
-0.065468624 0.023667073 0.16800001
-0.063712291 0.02340967 0.16636364
-0.057493795 0.020646265 0.168881
-0.052664924 0.02140655 0.16773736
-0.04832207 0.021988124 0.16606334
-0.06560234 0.026269305 0.16544445
-0.062562712 0.027552715 0.16643555
-0.058395516 0.02739501 0.16653745
-0.053768374 0.026632857 0.16825002
-0.029248221 0.037501689 0.16567121
-0.065668106 0.018686881 0.17072727
-0.063437007 0.018500827 0.17060713
-0.066089943 0.022694273 0.17216985
-0.062651992 0.022670817 0.17199267
-0.05738382 0.023194283 0.17067432
-0.053179886 0.023969958 0.17012967
-0.065285988 0.025663331 0.17190002
-0.063103974 0.026047278 0.17133822
-0.056751005 0.025989441 0.17078844
-0.05372902 0.025707964 0.17048575
