# .PCD v0.7 - Point Cloud Data file format
VERSION 0.7
FIELDS x y z
SIZE 4 4 4
TYPE F F F
COUNT 1 1 1
WIDTH 159
HEIGHT 1
VIEWPOINT 0 0 0 1 0 0 0
POINTS 159
DATA ascii
0.054732691 -0.00027081158 0.17400001
0.05615782 -0.0003286849 0.17400001
0.054362673 0.0015765589 0.17378041
0.056844853 0.0024359776 0.17328796
0.057036769 0.0051837461 0.17400001
0.048216332 -0.0015189882 0.1783334
0.051923048 -0.00092490029 0.17602821
0.059352238 -0.00049806864 0.17655557
0.061057772 -0.00069331896 0.17823076
0.049002931 0.0014306383 0.1787674
0.052247401 0.0027311922 0.17683996
0.058499165 0.003729902 0.17548154
0.060696099 0.0021293967 0.17712002
0.053556006 0.006782244 0.17814289
0.057041444 0.0076338449 0.17681482
0.060498539 0.0059456658 0.17774999
0.057847518 0.011827357 0.17880334
0.04317297 -0.0055642342 0.18377274
0.045248229 -0.0052588219 0.18400002
0.043671302 -0.003096411 0.18278122
0.04605769 -0.0027133364 0.18048617
0.062285781 -0.0025187647 0.18263891
0.044800706 0.00033518032 0.18400002
0.047143176 0.0027471951 0.18183225
0.050627138 0.0046620299 0.18000001
0.04836943 0.006815549 0.18265299
0.051481679 0.007828529 0.18100934
0.060646575 0.0081232926 0.18052383
0.049467709 0.010468316 0.18400003
0.052906688 0.011934795 0.18192717
0.056710545 0.01385898 0.18030007
0.060358942 0.012585014 0.1800667
0.054584194 0.016223315 0.18341178
0.057321578 0.01739894 0.18236123
0.06015015 0.015952881 0.18000001
0.056824081 0.020363202 0.18400002
0.037863813 -0.0065711783 0.18752874
0.041012511 -0.0059652566 0.18542856
0.063870959 -0.0052257311 0.18585713
0.038727004 -0.002904284 0.18803898
0.04146225 -0.0021958521 0.18600006
0.063771978 -0.0040424434 0.18545455
0.039327201 0.00047197769 0.18900001
0.042864714 0.002128243 0.18690911
0.045320805 0.0042106756 0.18561541
0.044014174 0.0069806073 0.18821824
0.046567917 0.0081121111 0.18627961
0.048227575 0.012268314 0.18675004
0.051380008 0.013885584 0.18517019
0.049357302 0.015676372 0.18871431
0.052344982 0.017663043 0.18675587
0.055091865 0.019545306 0.18533334
0.032258604 -0.010977758 0.19313465
0.03529248 -0.01044211 0.19150001
0.065854236 -0.01022337 0.19325
0.033166993 -0.0077451011 0.19218808
0.035572916 -0.0073653413 0.19009094
0.064880036 -0.0076327068 0.19169234
0.06601952 -0.0081523862 0.19181575
0.034205347 -0.0030958676 0.19347505
0.036412112 -0.0022426895 0.19158889
0.034810357 0.0001174757 0.19400001
0.038055137 0.0021361408 0.19195907
0.040962502 0.0036729618 0.19026473
0.039319664 0.0066728881 0.1931842
0.041821066 0.0077432292 0.19142374
0.043379098 0.011946706 0.19257149
0.046033572 0.013014478 0.19071876
0.044551179 0.015922997 0.19352634
0.047525439 0.017607141 0.1919935
0.050112542 0.01849689 0.19000003
0.02632447 -0.015481207 0.19880001
0.067925103 -0.015790883 0.19850004
0.027660934 -0.012410262 0.19713736
0.03108843 -0.012880303 0.19646668
0.067849241 -0.012818899 0.19793221
0.02884233 -0.0081198821 0.19825423
0.030967094 -0.0068244929 0.19583331
0.029899497 -0.0045581898 0.19900002
0.032251619 -0.0026422627 0.19671422
0.03383293 0.0019113597 0.19772063
0.036006965 0.0033654957 0.19573468
0.034739524 0.0057134246 0.19900003
0.037303153 0.0076021724 0.19695683
0.040048715 0.0099197458 0.19500001
0.038779393 0.01203023 0.19803338
0.041307125 0.013195992 0.19567138
0.047520306 -0.020384567 0.20400001
0.028378401 -0.016392736 0.19999991
0.032689057 -0.016380774 0.20148723
0.037605729 -0.016705427 0.20314816
0.042448398 -0.018206963 0.20400025
0.045724671 -0.019297732 0.20400003
0.068734638 -0.017137494 0.20116667
0.070403717 -0.018166667 0.2036
0.027360382 -0.012587676 0.20023081
0.032903578 -0.014087277 0.20155771
0.036873747 -0.013368273 0.2037501
0.069288835 -0.012850489 0.2
0.027238769 -0.0073312297 0.20177782
0.028758308 -0.0028921622 0.20234852
0.030664532 -0.0016345502 0.20072001
0.029458513 0.0011811531 0.20365003
0.031738829 0.002688478 0.20161179
0.03347883 0.0073159868 0.20194937
0.035567436 0.0090846969 0.20035295
0.034358077 0.011747854 0.20357147
0.036631566 0.012910785 0.20137934
0.048664592 -0.02032363 0.20533335
0.052688077 -0.02049833 0.20632349
0.05778376 -0.020766439 0.20709798
0.062746361 -0.021237837 0.20804013
0.067499295 -0.021288341 0.2086
0.070681527 -0.020439893 0.20791668
0.039110918 -0.019487301 0.20500001
0.042828057 -0.016051892 0.20513457
0.047705643 -0.017282335 0.20584086
0.052569933 -0.017367078 0.20731518
0.057476338 -0.017382238 0.20818561
0.062133752 -0.018549407 0.20869349
0.067339897 -0.018973624 0.20862223
0.0704289 -0.01927842 0.20560002
0.039056413 -0.012031326 0.20529163
0.042500496 -0.01257322 0.20652674
0.047144398 -0.012704516 0.20809662
0.051733542 -0.013905186 0.20890917
0.055632126 -0.014445411 0.20900001
0.068679124 -0.014445411 0.20900001
0.02634551 -0.0064484621 0.20525002
0.042947646 -0.0092175724 0.20706896
0.046036962 -0.008876387 0.20867865
0.027324239 -0.0021713828 0.20661293
0.02835892 0.0025100561 0.20728572
0.030551691 0.0043622013 0.20500001
0.029448023 0.0063739717 0.20772727
0.031153899 0.0079071103 0.20617914
0.069688737 -0.022005625 0.21000001
0.070369743 -0.02166512 0.21000001
0.059181739 -0.015292823 0.21000002
0.062994719 -0.016384108 0.21040294
0.066926211 -0.016434239 0.2105232
0.049107131 -0.010939231 0.21000002
0.052860163 -0.011908898 0.21071909
0.057498321 -0.012460218 0.21126258
0.062545069 -0.012610105 0.21236004
0.066996761 -0.012712825 0.21256988
0.048630383 -0.0085213892 0.21056411
0.052626811 -0.0080713565 0.21232039
0.057596125 -0.0075728684 0.21347874
0.061836686 -0.0077445405 0.21398303
0.067357324 -0.0064220396 0.2138889
0.058530297 -0.004216251 0.21191999
0.062975138 -0.0035227791 0.2129077
0.065721288 -0.0036731064 0.21227998
0.027458414 0.004403038 0.21018183
0.028040113 0.0077385237 0.21067226
0.06838236 -0.010517815 0.21585718
0.063375644 -0.0074763997 0.21500008
0.066739298 -0.0078465044 0.21575573
