# .PCD v0.7 - Point Cloud Data file format
VERSION 0.7
FIELDS x y z
SIZE 4 4 4
TYPE F F F
COUNT 1 1 1
WIDTH 82
HEIGHT 1
VIEWPOINT 0 0 0 1 0 0 0
POINTS 82
DATA ascii
0.073975131 -0.085276634 0.31375003
0.075448625 -0.085072786 0.31300002
0.074064575 -0.082724586 0.31321743
0.077445284 -0.082597993 0.31210181
0.081317097 -0.082296379 0.31323537
0.074941114 -0.079997644 0.31300002
0.077305779 -0.078523964 0.31351289
0.080441609 -0.079065248 0.31400001
0.073492199 -0.08626385 0.31550002
0.087642312 -0.085881978 0.31787503
0.073325589 -0.081779629 0.31700003
0.08385361 -0.081907608 0.31552944
0.087154843 -0.083249509 0.31809381
0.074119732 -0.077848248 0.317375
0.077463679 -0.07621707 0.31563336
0.08264406 -0.077643745 0.31683341
0.085842475 -0.078829348 0.31853849
0.074308716 -0.074548379 0.31900001
0.077195071 -0.073076084 0.31803519
0.08121568 -0.074448921 0.31815383
0.070867434 -0.085750297 0.32360002
0.09256845 -0.087488808 0.32238713
0.071128644 -0.082606308 0.32335711
0.08874429 -0.081784621 0.32042858
0.072374374 -0.076883852 0.32337499
0.084140643 -0.075041495 0.32000002
0.087395608 -0.076922394 0.32174286
0.090183228 -0.07667999 0.324
0.073949404 -0.072303094 0.32232001
0.077712715 -0.070530884 0.32052183
0.082837261 -0.072184607 0.32124498
0.086628065 -0.072754472 0.32293546
0.074307881 -0.069305122 0.32350001
0.077554896 -0.068248481 0.32274365
0.082309075 -0.068258785 0.32335144
0.08584898 -0.068970859 0.32389998
0.067925006 -0.091733202 0.32900006
0.069094636 -0.086923905 0.3265385
0.069806315 -0.0835182 0.32575002
0.070346795 -0.081674561 0.32550001
0.093872271 -0.0819076 0.32725
0.071240611 -0.07774663 0.32570592
0.093969464 -0.079027459 0.32866669
0.07213755 -0.073798768 0.32554549
0.088748917 -0.072854578 0.32500002
0.074421436 -0.067383349 0.32523081
0.077214569 -0.066374265 0.32517385
0.082729541 -0.066001765 0.32592309
0.086899579 -0.066932358 0.32626668
0.074882127 -0.064819492 0.32600001
0.07756903 -0.06271337 0.32694644
0.085779756 -0.064503059 0.32775003
0.066393375 -0.095462106 0.33220002
0.067023762 -0.093025647 0.33086362
0.067239664 -0.089425817 0.33000001
0.096147969 -0.080659673 0.33057147
0.094466522 -0.076775104 0.33025002
0.095604971 -0.07865072 0.33025002
0.093562819 -0.071016639 0.33275002
0.093228258 -0.069990918 0.333
0.071731053 -0.069531858 0.33600003
0.068542875 -0.10391038 0.34400004
0.070331313 -0.10337917 0.34400004
0.079574503 -0.1046541 0.34400001
0.082808226 -0.10256161 0.34372002
0.087402761 -0.10231899 0.34292173
0.092427105 -0.10207856 0.34153691
0.097321875 -0.10186433 0.34079996
0.10060646 -0.10091698 0.34080002
0.062753052 -0.09642078 0.34200001
0.08431562 -0.099076316 0.34400001
0.088085182 -0.098109007 0.34357581
0.092504121 -0.0981014 0.34217075
0.097511359 -0.099005587 0.34100008
0.10066537 -0.099318109 0.34100005
0.067065179 -0.082473911 0.34157148
0.073169298 -0.10306401 0.34500021
0.077771641 -0.10268008 0.34500006
0.081297562 -0.10085606 0.34500003
0.078593798 -0.098991394 0.34500003
0.083053462 -0.097717218 0.34500018
0.086683154 -0.096468605 0.34500009
