# .PCD v0.7 - Point Cloud Data file format
VERSION 0.7
FIELDS x y z
SIZE 4 4 4
TYPE F F F
COUNT 1 1 1
WIDTH 181
HEIGHT 1
VIEWPOINT 0 0 0 1 0 0 0
POINTS 181
DATA ascii
-0.0021652393 0.018848987 0.14688006
0.0032447989 0.019278506 0.14584614
0.0069552218 0.018402632 0.14808667
-0.0014513399 0.022410434 0.14670452
0.002589847 0.022536963 0.14634012
0.0061508548 0.021927295 0.14824471
-0.0016061018 0.026125781 0.14843898
0.0024647561 0.026204169 0.14879054
0.0055357334 0.025639005 0.149
-0.0055878856 0.014412613 0.15378575
-0.0045685843 0.014668266 0.15366668
0.012963976 0.014322698 0.15356517
-0.005595265 0.016272252 0.15315391
-0.0034829716 0.016573314 0.15265478
0.0090128798 0.017750263 0.15106523
0.011571547 0.017227706 0.15284152
0.0082963016 0.022897998 0.15121697
0.010664977 0.021534381 0.15334688
-0.0010633154 0.028098471 0.15105633
0.0028187456 0.028761119 0.15101786
0.0070294542 0.027095135 0.15256844
-0.00083153829 0.032019362 0.15369996
0.002859334 0.032412883 0.15331477
0.0056613875 0.031258747 0.15365712
0.0026626308 0.035051711 0.15400001
-0.0061786021 0.013172326 0.15771051
-0.0041803103 0.013917223 0.15678573
0.014649763 0.013631637 0.15534997
0.017046168 0.012780536 0.15762946
-0.0033585418 0.015205975 0.15533334
0.014148702 0.017770987 0.15562502
0.016232975 0.017135823 0.15784527
0.012849492 0.022553921 0.1567989
0.015299511 0.021147856 0.15881251
0.0088383192 0.028367249 0.15576929
0.011275699 0.027028169 0.15757278
-0.00081577839 0.033497203 0.15499999
0.00080640888 0.033702828 0.15499999
0.0076829144 0.032431621 0.15707497
0.010392706 0.031020943 0.15880004
-0.00053879851 0.037044175 0.15662163
0.0025733777 0.037470475 0.15681531
0.0062858043 0.036692936 0.15830687
-0.0068310103 0.0048560379 0.163
-0.0068011153 0.007245448 0.16261537
-0.0042002359 0.0090608923 0.16305004
0.019033793 0.0096655972 0.16107145
0.021947876 0.0087750033 0.16309631
-0.0074188244 0.011310634 0.16070454
-0.0041684839 0.011601351 0.16340001
0.019151039 0.012985799 0.16047826
0.02084681 0.012118055 0.16205816
-0.003280581 0.015256623 0.164
0.018521391 0.017724203 0.16189471
0.020541534 0.015937258 0.16357146
0.014765102 0.024202442 0.16
0.017096128 0.02232714 0.16192533
0.013531631 0.027984893 0.16104004
0.016090594 0.026694087 0.16294204
0.0091342153 0.034152493 0.16009527
0.012176271 0.032281402 0.16213736
0.015067748 0.030280977 0.164
-0.0013009498 0.039266456 0.16033335
0.008377484 0.037876647 0.16132475
-0.0077503091 0.0044134581 0.16678949
0.026516482 0.0045184628 0.16833335
-0.010658038 0.0069963047 0.1683913
-0.0082860002 0.0077080093 0.16739136
-0.0038722451 0.0089335022 0.16666667
0.024133364 0.0074348552 0.16614284
0.026464593 0.0072927442 0.16793132
-0.006493479 0.010906082 0.16844447
-0.0034212333 0.01236949 0.16696611
0.023445705 0.012673508 0.16644341
0.025759755 0.011361003 0.16850002
-0.0030514274 0.015308099 0.16600001
0.019975331 0.019295856 0.16500001
0.022270506 0.017218798 0.16691348
0.019270305 0.023104301 0.16599998
0.020769386 0.022010067 0.16783673
0.017891038 0.02778242 0.16622891
0.01398134 0.033891305 0.1658974
0.016553178 0.032045234 0.16710998
-0.011621149 0.0044257762 0.17300001
-0.0096862474 0.0043456 0.17066668
0.024732616 0.0049016136 0.17400001
0.02808848 0.0034217227 0.17159997
-0.010783005 0.0056177541 0.17058824
-0.0088114906 0.0072260932 0.17020001
0.028671639 0.0074751312 0.17141174
-0.0071691102 0.01156692 0.17255002
-0.0027309018 0.013487921 0.17176192
0.027316082 0.012552843 0.172125
0.0024210189 0.018925956 0.17150001
0.024092458 0.018738508 0.17119999
0.02591172 0.017077152 0.1724821
0.023155728 0.022720901 0.17183037
0.025366694 0.020634711 0.17383336
0.019508796 0.028411407 0.17036003
0.021828979 0.026980592 0.1723761
-0.014211484 -0.0006280102 0.17876925
0.0087329345 -0.0012810521 0.17899993
0.012499661 -0.0010932805 0.17835179
0.017569695 -0.00079093478 0.17723443
0.0225609 -0.00070349674 0.17605458
0.026583498 -0.00042883528 0.17503847
-0.012490777 0.0022396017 0.17601354
-0.0095135029 0.0035310781 0.17600001
0.0094386842 0.00056448323 0.17900001
0.012908055 0.0013169524 0.17869881
0.017906973 0.0022139938 0.17806683
0.022625893 0.0025396401 0.17676578
0.027102906 0.0018627271 0.17507476
0.030452177 0.0034553304 0.17521052
0.019638533 0.0056229439 0.17900001
0.022038896 0.0059283241 0.17861538
0.029901257 0.0076457127 0.17500003
0.030394308 0.0062103989 0.175125
-0.0019160194 0.014242458 0.17842859
0.029071003 0.012730096 0.17587502
0.030150943 0.013401601 0.17725
-0.0021805961 0.016208246 0.178
0.0014954521 0.01814991 0.17875001
0.027901696 0.017635943 0.17696492
0.030087156 0.018103244 0.17900001
0.024874758 0.023444714 0.17500001
0.026246209 0.022137016 0.17675002
0.023923438 0.028179036 0.17583679
0.025610242 0.027098104 0.17768182
-0.012278899 -0.0015622671 0.18127787
-0.0076296339 -0.0015212795 0.18192396
-0.0025350121 -0.0014772997 0.18105491
0.0027499152 -0.0012433076 0.18022098
0.006340879 -0.0012043765 0.17999998
-0.011231784 0.0012030884 0.18207806
-0.0073398692 0.0022309877 0.18334976
-0.0024375774 0.0021442934 0.18288951
0.0027361028 0.0023460886 0.18243144
0.0075020944 0.0026666396 0.18110055
0.01223014 0.0035759176 0.18045747
0.016281623 0.004185224 0.18003705
-0.0062325052 0.00681904 0.18385717
-0.0045756921 0.00936017 0.18400002
0.0031925819 0.0057775602 0.18391307
0.0081645083 0.0061802589 0.18333331
0.012510227 0.0072193253 0.18259998
0.017258089 0.0073661064 0.18152903
0.020423172 0.007113663 0.18000004
-0.0020979708 0.013041192 0.18076472
0.014160487 0.012283969 0.18400002
0.016284756 0.010560795 0.18310001
0.029729892 0.014877165 0.18000001
0.030129842 0.014490242 0.18100001
-0.0015902471 0.018070154 0.18161669
0.0027194717 0.017594209 0.18195835
0.0055075767 0.018701755 0.18200001
0.029455505 0.01768785 0.18034485
0.030297261 0.016038273 0.18025
-0.0018152962 0.020920213 0.18286958
0.028426562 0.022606278 0.18119448
0.03031314 0.023036245 0.1836154
-0.0052004969 0.0049115173 0.185
-0.0027257586 0.0047240378 0.18499997
0.00081465661 0.0041379151 0.18499997
-0.0054768259 0.0067539592 0.18508694
-0.0024612038 0.0074120574 0.18607613
0.0023768654 0.0077275047 0.18603241
0.00689772 0.0081880614 0.18602225
0.01198576 0.0095333718 0.18518747
0.016697187 0.0097110095 0.185
-0.0015127741 0.011939248 0.1873261
0.0024506452 0.012444175 0.18794844
0.0075377929 0.012457198 0.18745668
0.012133305 0.012226284 0.18597658
0.015933633 0.010692724 0.18499999
-0.0006321902 0.016316364 0.18553334
0.002936858 0.016177546 0.18591671
0.0068267481 0.016215142 0.18651356
0.010397853 0.015110437 0.185
-0.0054759635 0.023131302 0.18790908
-0.0048529068 0.022166573 0.18814287
