# .PCD v0.7 - Point Cloud Data file format
VERSION 0.7
FIELDS x y z
SIZE 4 4 4
TYPE F F F
COUNT 1 1 1
WIDTH 118
HEIGHT 1
VIEWPOINT 0 0 0 1 0 0 0
POINTS 118
DATA ascii
-0.089451961 -0.072361737 0.30900002
-0.086245202 -0.080779515 0.31112504
-0.08313676 -0.080247954 0.31200001
-0.07605426 -0.080753848 0.31200001
-0.073056817 -0.080427796 0.31185716
-0.067346752 -0.080700628 0.31255555
-0.06231558 -0.081624076 0.31378058
-0.059536666 -0.082900733 0.31400001
-0.087143525 -0.077536285 0.31087726
-0.082629614 -0.077299029 0.3113001
-0.077583663 -0.077230856 0.31143484
-0.07279446 -0.077359617 0.31240252
-0.067709766 -0.077465713 0.31328368
-0.063978516 -0.078598611 0.31387505
-0.090096012 -0.07308878 0.31100002
-0.087169863 -0.072413474 0.31148008
-0.082754858 -0.073279105 0.31269771
-0.077685513 -0.073866621 0.3133871
-0.073079675 -0.073990881 0.31400004
-0.068977498 -0.073998146 0.31400001
-0.090192601 -0.068978414 0.3136667
-0.088575087 -0.068839252 0.3138572
-0.056192603 -0.085375808 0.31600004
-0.053286429 -0.085645974 0.317
-0.060441334 -0.080508813 0.31500003
-0.057415862 -0.082271479 0.31521988
-0.052467637 -0.082739428 0.31655562
-0.049167469 -0.081481405 0.31840003
-0.065165833 -0.075784311 0.31500003
-0.062098593 -0.077188015 0.31544229
-0.057465803 -0.077612519 0.31650746
-0.052565582 -0.077849738 0.3175948
-0.049255762 -0.078948252 0.31863639
-0.085468411 -0.070804432 0.31500003
-0.082150318 -0.071128681 0.31541932
-0.077557981 -0.071374342 0.31568423
-0.072699904 -0.07198444 0.31579989
-0.067514636 -0.072216876 0.31581354
-0.062697202 -0.072601765 0.31692314
-0.057933632 -0.07289131 0.31834438
-0.053654119 -0.074341156 0.31881818
-0.090123072 -0.067141995 0.317
-0.087069318 -0.067286298 0.3168689
-0.082499519 -0.067611285 0.31762907
-0.07743343 -0.067710504 0.3179355
-0.07260298 -0.067762755 0.31837502
-0.067711748 -0.068491273 0.31802508
-0.06250453 -0.068911605 0.318129
-0.059657115 -0.069634572 0.31900001
-0.090174429 -0.06135869 0.31900001
-0.088082284 -0.063093677 0.31871119
-0.082933031 -0.064979389 0.31900001
-0.08820229 -0.057591192 0.31841668
-0.087948173 -0.054892443 0.3175
-0.050381351 -0.086781047 0.32120001
-0.049542997 -0.086215757 0.32242858
-0.04829745 -0.082328878 0.32100004
-0.050522506 -0.075631306 0.32066667
-0.048903178 -0.077641368 0.32153851
-0.056538627 -0.070780061 0.3204706
-0.052647568 -0.072401702 0.32187727
-0.049556706 -0.073932998 0.32322222
-0.08171054 -0.065257207 0.32000005
-0.077189006 -0.065183081 0.32000005
-0.072155356 -0.065371767 0.32000002
-0.068152048 -0.065827534 0.32072005
-0.061040647 -0.066343524 0.32144448
-0.058003761 -0.067623027 0.3224099
-0.054289311 -0.069139078 0.32372728
-0.086024523 -0.061674524 0.32038707
-0.082189195 -0.062312745 0.32079023
-0.077313855 -0.062339459 0.32122418
-0.072408363 -0.062456466 0.32163483
-0.067611888 -0.062408593 0.32240751
-0.062735692 -0.062704332 0.32296669
-0.05936636 -0.064246714 0.324
-0.086625859 -0.057510644 0.32147929
-0.082171738 -0.057688653 0.32287511
-0.077601291 -0.058494188 0.32351431
-0.072296917 -0.058891516 0.32382143
-0.067677617 -0.058511633 0.32385716
-0.063065141 -0.058591362 0.32371879
-0.086312376 -0.086757302 0.32618189
-0.084204905 -0.087141059 0.32844448
-0.056036454 -0.089915276 0.32500002
-0.051244602 -0.071111299 0.32637501
-0.049712796 -0.073052198 0.32500002
-0.05663871 -0.065975726 0.32500002
-0.052668132 -0.067394011 0.32606778
-0.060779195 -0.061458826 0.32500002
-0.057416759 -0.062222708 0.32596973
-0.053464003 -0.063181005 0.32768297
-0.076724 -0.056429777 0.3253448
-0.072280563 -0.05634458 0.32511106
-0.058221165 -0.058786876 0.32774299
-0.085257716 -0.090228431 0.33000001
-0.082016833 -0.091914721 0.3325946
-0.085257716 -0.089693353 0.33000001
-0.08325313 -0.088806078 0.33099997
-0.050400089 -0.071025923 0.33100003
-0.05057054 -0.067621984 0.33115387
-0.049168568 -0.069242418 0.33200002
-0.052212659 -0.061219919 0.33083335
-0.080356531 -0.091865525 0.33571428
-0.079799362 -0.092635371 0.33736369
-0.081161425 -0.089350775 0.33575001
-0.076834053 -0.10080618 0.3437857
-0.073771767 -0.10083938 0.34380001
-0.080156974 -0.09836702 0.34250003
-0.077612713 -0.097302034 0.34304085
-0.072676942 -0.097133741 0.34366664
-0.06816984 -0.096701346 0.34176001
-0.077931911 -0.092938393 0.3422564
-0.071794175 -0.09405759 0.34366667
-0.068639182 -0.094202742 0.34183335
-0.074029252 -0.095448524 0.34500003
-0.075387806 -0.092491694 0.34500006
-0.073413916 -0.092959188 0.34500012
