# .PCD v0.7 - Point Cloud Data file format
VERSION 0.7
FIELDS x y z
SIZE 4 4 4
TYPE F F F
COUNT 1 1 1
WIDTH 112
HEIGHT 1
VIEWPOINT 0 0 0 1 0 0 0
POINTS 112
DATA ascii
-0.050942369 0.029115686 0.13058338
-0.047503076 0.029083781 0.13008007
-0.042723779 0.029247282 0.13001896
-0.03779937 0.029297641 0.13002029
-0.032840382 0.029094918 0.13109094
-0.051337764 0.032587975 0.13233897
-0.047368016 0.032307863 0.1313591
-0.042506583 0.03224903 0.1310709
-0.03760368 0.032366432 0.13115525
-0.033154201 0.032276776 0.13212441
-0.05105298 0.03540995 0.13400005
-0.047265697 0.03599482 0.13375445
-0.042650308 0.036168948 0.13370806
-0.037241194 0.036031581 0.13362725
-0.033345491 0.035861995 0.13380256
-0.035573512 0.025890358 0.13900001
-0.033117391 0.027033458 0.13610776
-0.053922087 0.03488617 0.13500001
-0.031309336 0.033456698 0.13513526
-0.055397838 0.039099097 0.13780002
-0.052691646 0.038004048 0.13643989
-0.047622304 0.03851505 0.1355574
-0.042456925 0.038538888 0.13558263
-0.037706513 0.038533196 0.13545659
-0.032300349 0.03799893 0.13649529
-0.055259265 0.040819734 0.13880001
-0.052264757 0.041102346 0.13838963
-0.04748207 0.041964941 0.13809934
-0.042658295 0.041770268 0.13769463
-0.037629578 0.041940335 0.13787431
-0.033047762 0.041239131 0.13808855
-0.036718324 0.023797406 0.14136538
-0.035540998 0.025595877 0.14058337
-0.03454287 0.025900124 0.14040001
-0.030721867 0.039174691 0.14
-0.055887111 0.043083735 0.14065512
-0.052605171 0.043616924 0.14049108
-0.047530644 0.044482335 0.13999999
-0.042734072 0.044560827 0.14012194
-0.036914274 0.044115338 0.14003225
-0.032030694 0.043425687 0.14081044
-0.056715976 0.046463918 0.14342467
-0.052349064 0.046902489 0.14270079
-0.047355764 0.047390517 0.14194119
-0.042615872 0.047556475 0.14206758
-0.037436314 0.0474048 0.14189734
-0.032619894 0.047327571 0.14298898
-0.062236857 0.01913061 0.14900003
-0.041521478 0.019737681 0.14850001
-0.062480293 0.022099627 0.14900011
-0.0407115 0.020618238 0.14737037
-0.039021604 0.022015139 0.14586204
-0.031102668 0.044559613 0.1455
-0.057337504 0.04883885 0.14536767
-0.053560484 0.049199004 0.14514285
-0.031449039 0.048121229 0.1461509
-0.061067108 0.017937256 0.15230323
-0.059763197 0.018571295 0.15400003
-0.04519717 0.016989842 0.15400001
-0.04381546 0.018252496 0.15245998
-0.06149859 0.022387547 0.15203017
-0.062471826 0.027644074 0.15154062
-0.062524542 0.031231433 0.15230533
-0.060349628 0.014607253 0.156
-0.058558077 0.014232469 0.15786442
-0.048301175 0.014141761 0.15836667
-0.060239505 0.017158533 0.15588099
-0.058737408 0.017397843 0.15722856
-0.047283228 0.0160232 0.15776668
-0.060617305 0.022863034 0.15628257
-0.058714323 0.022388019 0.15820174
-0.061302032 0.027551986 0.15700665
-0.058910619 0.025404682 0.15900002
-0.061288234 0.031778876 0.15693386
-0.057179384 0.032593645 0.15783209
-0.052335728 0.032518245 0.15783094
-0.047124244 0.032709632 0.15753078
-0.044502016 0.03270188 0.15727775
-0.055134553 0.0098053087 0.164
-0.05460272 0.0096723493 0.164
-0.056603756 0.013194587 0.16233967
-0.052896932 0.012265597 0.16343333
-0.057318956 0.017494094 0.16218862
-0.054194968 0.017233279 0.16400003
-0.057912048 0.022144448 0.16299167
-0.053739283 0.022213321 0.16387807
-0.060445193 0.027967701 0.16034617
-0.058232151 0.027882243 0.16204786
-0.051183779 0.029502222 0.16400002
-0.048449319 0.029709455 0.16345456
-0.060471158 0.0312928 0.16033332
-0.057243548 0.030931059 0.16124386
-0.052342985 0.030963583 0.16221625
-0.048417162 0.031125279 0.1616087
-0.055203199 0.0097313272 0.16500001
-0.05431499 0.0098129567 0.16525
-0.055658668 0.012309028 0.16581479
-0.054097459 0.012171966 0.16523683
-0.055877864 0.017718472 0.16551667
-0.054278895 0.017588142 0.16783026
-0.056580551 0.022590134 0.16612633
-0.054115422 0.022457466 0.16605556
-0.056892093 0.027342921 0.16615956
-0.052917711 0.027945276 0.16576077
-0.049513474 0.029239871 0.16555555
-0.055336967 0.030198079 0.16500001
-0.053449336 0.030123765 0.16500001
-0.05522215 0.019673843 0.17
-0.054578979 0.019398196 0.16999999
-0.055293892 0.022392256 0.17045455
-0.054233905 0.022620028 0.17057309
-0.053529814 0.026699441 0.17106059
