# .PCD v0.7 - Point Cloud Data file format
VERSION 0.7
FIELDS x y z
SIZE 4 4 4
TYPE F F F
COUNT 1 1 1
WIDTH 136
HEIGHT 1
VIEWPOINT 0 0 0 1 0 0 0
POINTS 136
DATA ascii
-0.070342258 -0.021846402 0.20250002
-0.069134697 -0.021461098 0.20236365
-0.068225272 -0.019758882 0.20100001
-0.071161032 -0.025128331 0.20766668
-0.07072717 -0.023489814 0.20693336
-0.06958665 -0.023089707 0.20575003
-0.076167524 -0.015795775 0.20892861
-0.072715729 -0.016232278 0.20853446
-0.075343281 -0.012784717 0.20887502
-0.073548451 -0.013148847 0.20814285
-0.073309101 -0.0086740125 0.20874999
-0.070358895 -0.02056244 0.21150002
-0.070702784 -0.016873486 0.21070214
-0.067947634 -0.01778386 0.21275546
-0.075919516 -0.012599191 0.21000002
-0.071912795 -0.012331017 0.21173757
-0.069006748 -0.013051831 0.21344644
-0.075378247 -0.0091996407 0.21069999
-0.073200539 -0.0080607738 0.2123366
-0.069861926 -0.0099331308 0.21400002
-0.074257135 -0.0036873065 0.214
-0.074385382 -0.028450238 0.21822225
-0.065540239 -0.020554103 0.215
-0.062189355 -0.021368908 0.21736713
-0.059474166 -0.022274038 0.21900003
-0.065929398 -0.016787181 0.21513337
-0.063586764 -0.017907152 0.21726266
-0.059776001 -0.019752847 0.21900001
-0.066945776 -0.012254554 0.21646763
-0.064582542 -0.013628426 0.21799998
-0.071621455 -0.0068833856 0.21571763
-0.068546548 -0.0080974437 0.21769701
-0.072543912 -0.0027308937 0.21749587
-0.069541186 -0.0048387507 0.21900001
-0.075755388 0.00084280933 0.21900001
-0.073209077 0.002525388 0.21829626
-0.073072761 0.0061282055 0.21876191
-0.075380027 -0.029898971 0.22050002
-0.074491337 -0.029062051 0.22025003
-0.056194492 -0.025839211 0.22260006
-0.054051526 -0.026405213 0.22399999
-0.060584027 -0.023766952 0.22000001
-0.057255883 -0.022380793 0.22171205
-0.054525234 -0.02396559 0.22400001
-0.061461158 -0.016748937 0.22045314
-0.058320548 -0.0177263 0.22244146
-0.065399736 -0.010568349 0.22000001
-0.062249575 -0.012469232 0.22174507
-0.059448846 -0.013765001 0.22333333
-0.066344112 -0.0070787258 0.22147776
-0.063752107 -0.0083595542 0.22339343
-0.070641711 -0.0017253148 0.22066668
-0.067876488 -0.0028457961 0.22216938
-0.0647728 -0.0049492246 0.22400001
-0.071666114 0.0023469245 0.22190829
-0.068689719 0.0015287198 0.22355995
-0.055211648 -0.027590547 0.22500001
-0.051475462 -0.026937019 0.22651114
-0.049717531 -0.027919399 0.22838464
-0.055333257 -0.021023674 0.22500001
-0.05267325 -0.02230618 0.22652458
-0.056168545 -0.01692492 0.2255926
-0.053852137 -0.017782195 0.22767507
-0.060319219 -0.010261299 0.22500001
-0.057545528 -0.012336969 0.22691049
-0.054671369 -0.014177515 0.22833335
-0.061567903 -0.0070132599 0.22596814
-0.059145153 -0.0083655464 0.22831826
-0.065891631 -0.0019760593 0.22551346
-0.062908188 -0.0027000713 0.22700819
-0.050223015 -0.03056558 0.23
-0.047143545 -0.031696621 0.2321641
-0.044554189 -0.031777769 0.23233341
-0.050098702 -0.025779601 0.23
-0.047390964 -0.027479397 0.23167746
-0.04457267 -0.028966861 0.23314288
-0.050610632 -0.022043783 0.2306857
-0.048318882 -0.022984006 0.23280405
-0.051673245 -0.017152729 0.23175821
-0.049427293 -0.019166855 0.23371431
-0.05537599 -0.010913009 0.23089474
-0.05313506 -0.012631454 0.23267579
-0.05702047 -0.0071324995 0.23142245
-0.054506849 -0.0083214892 0.23355003
-0.060630251 -0.0020838915 0.23058532
-0.058368213 -0.002618121 0.23277645
-0.060739685 -0.036360275 0.23900001
-0.057441246 -0.036284268 0.23824994
-0.052505884 -0.035949491 0.23660001
-0.048876159 -0.03542481 0.23514289
-0.056960769 -0.033541314 0.23850876
-0.052633919 -0.033522319 0.23653708
-0.048811905 -0.03410653 0.23500007
-0.045234382 -0.025987817 0.23525001
-0.044379685 -0.026186708 0.23563641
-0.045990501 -0.021834785 0.23564148
-0.044352662 -0.022315824 0.23690325
-0.047412109 -0.017598679 0.23663491
-0.044696085 -0.018973252 0.23900001
-0.050919648 -0.011868087 0.23651724
-0.048388291 -0.013300174 0.23820004
-0.052622106 -0.0073581254 0.23688796
-0.082863957 -0.037256449 0.24262968
-0.075580627 -0.038743049 0.24399999
-0.072455227 -0.03702968 0.24362972
-0.067765512 -0.03649915 0.24195912
-0.063417964 -0.036216725 0.24063414
-0.071069293 -0.034187391 0.24390909
-0.067170314 -0.033578157 0.24337266
-0.062462032 -0.032801799 0.24138454
-0.058783457 -0.03226291 0.23999992
-0.065412842 -0.029920416 0.24400002
-0.045497984 -0.016079878 0.24016669
-0.044430517 -0.016983928 0.24071433
-0.046552636 -0.012180945 0.24175636
-0.044556797 -0.014726412 0.24300002
-0.050631594 -0.0066632582 0.24058335
-0.047926437 -0.0076648355 0.24242051
-0.081265882 -0.04053646 0.24600001
-0.08159063 -0.03743853 0.24569702
-0.077627525 -0.037198 0.24517111
-0.074182197 -0.035644334 0.24499999
-0.08175806 -0.032648858 0.24721622
-0.077326544 -0.032695714 0.24721976
-0.072785743 -0.032127678 0.24653174
-0.068243638 -0.031511456 0.2454772
-0.082769565 -0.027943838 0.24860001
-0.075837448 -0.028514829 0.24900006
-0.072860815 -0.028769821 0.24823534
-0.068687774 -0.029484374 0.24646154
-0.0451487 -0.011845452 0.24509093
-0.044249762 -0.012100394 0.24542858
-0.081273191 -0.030437145 0.2502
-0.078661054 -0.030424528 0.25
-0.081784025 -0.028011806 0.25161108
-0.078232035 -0.028333314 0.2507714
