# .PCD v0.7 - Point Cloud Data file format
VERSION 0.7
FIELDS x y z
SIZE 4 4 4
TYPE F F F
COUNT 1 1 1
WIDTH 177
HEIGHT 1
VIEWPOINT 0 0 0 1 0 0 0
POINTS 177
DATA ascii
-0.075703584 -0.022208659 0.21869233
-0.072827414 -0.022100706 0.21880454
-0.069718733 -0.023481373 0.21900001
-0.061349582 -0.022198094 0.21790004
-0.057310026 -0.021810066 0.21651122
-0.053128719 -0.022311991 0.21827662
-0.072404742 -0.016278984 0.21872729
-0.060630322 -0.018894762 0.21866667
-0.057279937 -0.017855095 0.21763726
-0.054191347 -0.018945573 0.2183
-0.056935217 -0.01389374 0.21900006
-0.045886144 -0.030191958 0.22400001
-0.067078941 -0.025308346 0.221
-0.050060816 -0.025193827 0.22000001
-0.046652038 -0.026388373 0.2230545
-0.04479653 -0.025833501 0.22400001
-0.077357262 -0.023152668 0.22193751
-0.071177639 -0.021679986 0.22025925
-0.067461662 -0.022385806 0.22110422
-0.063935369 -0.022275889 0.22127274
-0.050734513 -0.022209218 0.22008164
-0.048081037 -0.022785559 0.22233343
-0.075898118 -0.017828276 0.22105888
-0.072239712 -0.017623132 0.2212801
-0.067843378 -0.017746063 0.22296397
-0.062956929 -0.017606189 0.22303382
-0.056740679 -0.015990324 0.22025004
-0.052126855 -0.017319979 0.22162601
-0.049544953 -0.018251907 0.2236
-0.075836919 -0.013746088 0.22300006
-0.073140614 -0.013023085 0.22245067
-0.069442213 -0.01450264 0.22383332
-0.060801558 -0.012522365 0.22310528
-0.056996673 -0.012371538 0.22108486
-0.053182736 -0.013223915 0.22279076
-0.049881399 -0.014392549 0.22400001
-0.072768338 -0.0077669532 0.22190478
-0.060051132 -0.0096708871 0.22400001
-0.057699382 -0.0080116661 0.22337133
-0.054966267 -0.0096708871 0.22400001
-0.073227838 -0.002453462 0.22386669
-0.057560887 -0.0047853454 0.22388887
-0.045671761 -0.030310597 0.22533336
-0.080682248 -0.02618536 0.22610526
-0.078523315 -0.026186652 0.22567858
-0.046570949 -0.028516296 0.2265
-0.044397429 -0.026938779 0.22620003
-0.080263063 -0.024185501 0.22500001
-0.079290181 -0.024307109 0.22500001
-0.04617146 -0.021495782 0.22580004
-0.044192448 -0.022683444 0.22729827
-0.06651368 -0.015780017 0.22510709
-0.064104289 -0.015460072 0.22500001
-0.047308963 -0.017201321 0.22682352
-0.044704221 -0.019099528 0.22816668
-0.076883979 -0.01185181 0.22604761
-0.071690269 -0.011958211 0.22532009
-0.067520753 -0.012334415 0.22624357
-0.063601986 -0.01238642 0.22606358
-0.051869854 -0.011425425 0.22562507
-0.04857339 -0.012987164 0.22787355
-0.075739436 -0.0083851246 0.22660001
-0.072223127 -0.0071890815 0.22776932
-0.068407357 -0.0083852476 0.22859682
-0.062703975 -0.0084966943 0.22805007
-0.056393474 -0.0070784148 0.22535419
-0.052848581 -0.0075440318 0.22725956
-0.049560737 -0.009624823 0.22866669
-0.072991744 -0.0038533502 0.22751619
-0.069931738 -0.0046883868 0.22900002
-0.060433034 -0.0021067243 0.22807695
-0.057285674 -0.0024292059 0.22765186
-0.053844262 -0.0035580331 0.22866671
-0.081767514 -0.031455044 0.23400012
-0.079805858 -0.030970685 0.23400001
-0.04693421 -0.032501891 0.23327501
-0.044707403 -0.030271634 0.23300001
-0.081726111 -0.029147455 0.23314288
-0.044179216 -0.027889874 0.23111112
-0.043648262 -0.021617791 0.23140001
-0.045206115 -0.015447167 0.23025
-0.044323888 -0.017585427 0.23191227
-0.046371669 -0.01173063 0.23097008
-0.044594228 -0.012715722 0.23303123
-0.067315586 -0.0065313959 0.23092504
-0.063694559 -0.0061909761 0.23125
-0.050673652 -0.0062643546 0.23026924
-0.047610618 -0.0074087717 0.23210163
-0.044519857 -0.0093437843 0.23400001
-0.075037152 -0.00073408068 0.23100001
-0.072360516 -0.0019296652 0.23137365
-0.067867622 -0.002958846 0.23307991
-0.063640021 -0.003256164 0.23285711
-0.057930306 -0.00023365817 0.23
-0.051944271 -0.0021450464 0.23133332
-0.048406731 -0.0035359599 0.23345284
-0.045591787 -0.035866126 0.23687501
-0.043596912 -0.035977568 0.23783334
-0.080146901 -0.033236861 0.23500001
-0.079053372 -0.032242768 0.23656528
-0.045823727 -0.033334833 0.23548006
-0.044099666 -0.033023935 0.23767807
-0.080113515 -0.028585145 0.23578577
-0.079004489 -0.02843794 0.23747502
-0.045083608 -0.027640928 0.23900001
-0.044696081 -0.029694818 0.23900001
-0.04352751 -0.02181562 0.23744826
-0.043537162 -0.017587086 0.23692499
-0.043941036 -0.01273114 0.23674417
-0.045227244 -0.0067436476 0.23500007
-0.044598725 -0.0070941476 0.23724242
-0.080446921 -0.035854921 0.24400002
-0.07906428 -0.035146948 0.24185719
-0.045787614 -0.038407944 0.24325001
-0.042909309 -0.03734364 0.24240541
-0.078460023 -0.033004414 0.24039131
-0.042802434 -0.03227948 0.24126084
-0.077558346 -0.029064644 0.24020003
-0.043562893 -0.027584158 0.24128228
-0.042940941 -0.022752499 0.242
-0.042992268 -0.017465521 0.24151617
-0.0437961 -0.012063412 0.24214289
-0.044097349 -0.0078955973 0.24195002
-0.08083155 -0.040558513 0.2476
-0.078213371 -0.041631319 0.24836117
-0.072809383 -0.044664472 0.24900001
-0.046464026 -0.041517392 0.24545711
-0.043980855 -0.040818587 0.245
-0.081088252 -0.038242102 0.24729633
-0.078680985 -0.037740722 0.24725455
-0.04662599 -0.03927093 0.24521427
-0.04264012 -0.037273083 0.24499999
-0.079069912 -0.032622237 0.2471613
-0.042015754 -0.032181144 0.24541663
-0.07903304 -0.02988779 0.24700001
-0.042242862 -0.029447153 0.245
-0.042587113 -0.021805735 0.24770002
-0.043033753 -0.017666249 0.24842313
-0.043631006 -0.012785206 0.24770001
-0.071437299 -0.045455564 0.25178573
-0.068094634 -0.045586739 0.25261906
-0.055283412 -0.045023222 0.25100002
-0.052122507 -0.045240283 0.25099999
-0.076095924 -0.041898757 0.25015005
-0.072965831 -0.042495493 0.25218377
-0.067081228 -0.042974714 0.25331709
-0.062471088 -0.042089455 0.25021744
-0.057307277 -0.042081732 0.25069901
-0.052811794 -0.042255986 0.25245681
-0.049915057 -0.043870982 0.25
-0.076937892 -0.037403509 0.25162929
-0.074113905 -0.038100667 0.25350001
-0.065914966 -0.038519297 0.25353846
-0.062462259 -0.037535008 0.25217399
-0.057784107 -0.038016781 0.25267041
-0.053843744 -0.039012957 0.25399998
-0.077962086 -0.032993827 0.25196391
-0.061947659 -0.034726568 0.25399998
-0.059444882 -0.034853294 0.25400001
-0.042091057 -0.016826389 0.25047225
-0.070927724 -0.041897893 0.25500008
-0.068744026 -0.041531544 0.25511119
-0.053270135 -0.040365618 0.25500003
-0.071804054 -0.037139926 0.25621581
-0.068443872 -0.037250824 0.25724998
-0.05728079 -0.036396306 0.25500005
-0.053890344 -0.039469767 0.25500003
-0.076533534 -0.032037064 0.2565192
-0.072974138 -0.032905761 0.25802198
-0.06616044 -0.03298939 0.2584762
-0.06259913 -0.032970197 0.25632259
-0.05854458 -0.033732176 0.25558069
-0.076493219 -0.029748354 0.25745454
-0.073431179 -0.02958357 0.25811762
-0.069491416 -0.035255022 0.26000002
-0.07054536 -0.032303981 0.26000005
-0.068540521 -0.032332081 0.26000014
