# .PCD v0.7 - Point Cloud Data file format
VERSION 0.7
FIELDS x y z
SIZE 4 4 4
TYPE F F F
COUNT 1 1 1
WIDTH 141
HEIGHT 1
VIEWPOINT 0 0 0 1 0 0 0
POINTS 141
DATA ascii
0.069184057 -0.086249709 0.31400004
0.072214566 -0.086273879 0.31396163
0.076994337 -0.085662775 0.31400007
0.081799299 -0.085344583 0.31400001
0.069325492 -0.084835447 0.31400001
0.072500877 -0.084058337 0.31400007
0.077217095 -0.083986871 0.3140001
0.081362903 -0.084544517 0.31400001
0.066955492 -0.086197071 0.31533337
0.077463001 -0.086637899 0.31500003
0.083214819 -0.085240707 0.31550002
0.087302864 -0.086510263 0.31810004
0.067318797 -0.082535245 0.31584123
0.072531156 -0.081945732 0.31537494
0.077623144 -0.081874184 0.31576309
0.082661644 -0.0824586 0.31568623
0.086072631 -0.082603045 0.31705883
0.067966469 -0.07858111 0.3179768
0.072455987 -0.077833757 0.31744784
0.077396914 -0.077735946 0.31798521
0.082034983 -0.078232706 0.3181819
0.08542943 -0.079720795 0.31900001
0.074308716 -0.074806996 0.31900001
0.077116601 -0.074807003 0.31900001
0.089904882 -0.090409406 0.32300001
0.092483893 -0.090686664 0.32384613
0.064966433 -0.087327078 0.324
0.089794315 -0.086652331 0.32100001
0.091865867 -0.088000104 0.32329166
0.087409489 -0.081267871 0.32000002
0.09069705 -0.084909789 0.32333335
0.068169542 -0.07618174 0.32017651
0.072021462 -0.075115621 0.32000005
0.079730302 -0.075041495 0.32000002
0.083363324 -0.075846389 0.32025003
0.086608849 -0.077791288 0.32078791
0.068804748 -0.073278293 0.32188895
0.072464369 -0.072530329 0.32144073
0.077496335 -0.072300583 0.32109362
0.082594328 -0.072412953 0.32158935
0.086136661 -0.072614022 0.3229565
0.073262796 -0.069394045 0.32377774
0.077716425 -0.068684496 0.32313338
0.082541101 -0.068345405 0.32344443
0.08588627 -0.068578653 0.32378569
0.057767428 -0.092529453 0.32756531
0.062142387 -0.091826007 0.32525524
0.065612502 -0.09123762 0.32525003
0.093857601 -0.09178894 0.32500002
0.095804915 -0.090774894 0.32525003
0.058432765 -0.087936148 0.3284376
0.06248555 -0.087460913 0.32626235
0.065166943 -0.089915276 0.32500002
0.093863532 -0.087414943 0.32583335
0.09567073 -0.088127457 0.32750005
0.053699482 -0.08195316 0.32900003
0.059567511 -0.084620439 0.32900003
0.062711775 -0.083075605 0.32806394
0.065480322 -0.081575483 0.32766673
0.09244404 -0.084203243 0.32712501
0.064501986 -0.079685964 0.32900003
0.066614091 -0.07777933 0.32853851
0.068317458 -0.071986429 0.32660872
0.070436656 -0.071207792 0.32500002
0.087631188 -0.071129814 0.32525003
0.068858683 -0.067931049 0.32729039
0.072353221 -0.067250408 0.32588339
0.077241927 -0.066664994 0.3255294
0.082601115 -0.066112816 0.32591999
0.087519921 -0.067094855 0.32658336
0.090508029 -0.068261102 0.32900006
0.054932863 -0.092101209 0.33000001
0.055620819 -0.091833681 0.33000004
0.05634293 -0.086912453 0.33030769
0.091594927 -0.085403204 0.33100003
0.09749379 -0.08674565 0.3325263
0.054576144 -0.082618423 0.33000001
0.057572011 -0.082297735 0.3307541
0.061239697 -0.080948532 0.3304117
0.093166016 -0.082536116 0.33200002
0.096063696 -0.082517028 0.33300003
0.054619905 -0.077002063 0.333
0.057582412 -0.077918172 0.33365709
0.062651366 -0.077567615 0.33171931
0.065926626 -0.077013843 0.33012497
0.092989281 -0.077076778 0.33233339
0.095922574 -0.077887021 0.3337858
0.064202994 -0.074064068 0.33328575
0.066379987 -0.072727375 0.33186668
0.089984827 -0.073059104 0.33100003
0.092846915 -0.072691612 0.33294734
0.095674478 -0.073721275 0.33400002
0.067371063 -0.067607097 0.33111766
0.094908044 -0.1025833 0.33900002
0.096895486 -0.10122152 0.33858335
0.097511791 -0.099099793 0.33850005
0.098348737 -0.085633509 0.33558333
0.098381266 -0.081756853 0.33574998
0.054842029 -0.07661435 0.33600003
0.057685342 -0.076286837 0.33547622
0.061096266 -0.075897619 0.33577782
0.09758687 -0.077369869 0.3354091
0.054420531 -0.073249206 0.33628574
0.057220694 -0.072778456 0.33731115
0.062902085 -0.072872706 0.33751288
0.065558732 -0.071148038 0.33628574
0.094874553 -0.071361862 0.33500001
0.096994102 -0.072438881 0.33563998
0.058857005 -0.1028214 0.34400004
0.060844872 -0.10268719 0.34399998
0.088518046 -0.10242214 0.34300002
0.092325784 -0.10207944 0.34113717
0.095555544 -0.10095637 0.34
0.088997796 -0.097924627 0.34364703
0.092005521 -0.098322451 0.34149998
0.095555544 -0.099394381 0.34
0.059813377 -0.072932318 0.34
0.061703268 -0.071672544 0.34031582
0.068028316 -0.10569712 0.34866667
0.086706698 -0.10558888 0.34800002
0.058243494 -0.1035344 0.34500003
0.063832037 -0.10321955 0.34533346
0.067224428 -0.1032915 0.34728581
0.087216139 -0.10251634 0.34636366
0.087505855 -0.098687924 0.34542859
0.074933328 -0.11019846 0.35100001
0.077453762 -0.11027976 0.35100004
0.081649058 -0.11019846 0.35100004
0.069281228 -0.10695238 0.34999999
0.072766535 -0.10699079 0.350532
0.077640712 -0.10719401 0.35154548
0.082747787 -0.1072787 0.35112277
0.08620777 -0.10639589 0.35010001
0.069369055 -0.10364193 0.35000005
0.072936878 -0.102754 0.35209095
0.077475406 -0.10274428 0.35328257
0.082353972 -0.10258412 0.35308337
0.086047597 -0.1022421 0.35182151
0.082971923 -0.099405356 0.35400003
0.08630266 -0.098909207 0.35278574
0.075211659 -0.10109322 0.35500002
