# .PCD v0.7 - Point Cloud Data file format
VERSION 0.7
FIELDS x y z
SIZE 4 4 4
TYPE F F F
COUNT 1 1 1
WIDTH 156
HEIGHT 1
VIEWPOINT 0 0 0 1 0 0 0
POINTS 156
DATA ascii
0.062114488 0.029813221 0.11880001
0.059943255 0.033356372 0.119
0.061576691 0.03211721 0.11864678
0.059818175 0.029142857 0.12284999
0.061149664 0.029087514 0.12255887
0.059757244 0.032342747 0.12285969
0.060938545 0.032663636 0.12151869
0.059848107 0.038276449 0.12400001
0.061881665 0.037557971 0.12214251
0.063247174 0.040949535 0.12307061
0.065142684 0.042163603 0.12400001
0.049994003 0.022218619 0.125
0.051396959 0.023152146 0.1267
0.049427316 0.02755967 0.12835553
0.052435372 0.027983103 0.12737814
0.057582196 0.028183248 0.12599994
0.060530487 0.028205199 0.12515385
0.053142797 0.031116674 0.12871131
0.058009662 0.031828161 0.12761542
0.060168516 0.03196517 0.12591666
0.059836574 0.035512198 0.12640001
0.060513206 0.037626423 0.12661816
0.062077932 0.042860355 0.12611999
0.065626092 0.04377874 0.1253235
0.062826984 0.047164008 0.12815517
0.066154353 0.047425076 0.12782668
0.049527004 0.024384931 0.13366669
0.051791515 0.023628397 0.13227691
0.049328987 0.0272277 0.13251664
0.051960979 0.025935242 0.13233332
0.055723786 0.027057217 0.13364288
0.049478985 0.031817924 0.1321646
0.052024413 0.033199422 0.13053499
0.057390317 0.034168139 0.13048962
0.060182091 0.034339961 0.13000001
0.052815955 0.03738543 0.13263258
0.057784215 0.037027393 0.13152283
0.060478263 0.038063463 0.13074608
0.053475063 0.040711436 0.13400005
0.059246887 0.041705437 0.13296485
0.060728826 0.042534344 0.13214406
0.059849687 0.047510192 0.13390003
0.061009467 0.047650374 0.13278951
0.067990281 0.04956717 0.13000001
0.059894532 0.050271504 0.134
0.061927076 0.050690521 0.13262497
0.067025997 0.050288532 0.13000005
0.04910215 0.022828616 0.13733988
0.051328409 0.022689302 0.13725494
0.055353262 0.023384409 0.13740002
0.048923936 0.027608557 0.13779183
0.057272531 0.027877212 0.13540001
0.048890416 0.032710314 0.13754396
0.050053403 0.034776721 0.13500001
0.049153902 0.037328087 0.13836563
0.050687864 0.038143955 0.13636212
0.056747936 0.039549958 0.13504167
0.049846105 0.041554369 0.13900001
0.052487832 0.04252829 0.13730043
0.057326838 0.042846967 0.13604254
0.054003358 0.046112828 0.13873468
0.058236133 0.047041643 0.13781032
0.060347259 0.047115277 0.13633336
0.049463317 0.019520231 0.14141177
0.052396704 0.018493118 0.14338675
0.057359602 0.019700257 0.14400001
0.049204625 0.021209257 0.14026089
0.051979318 0.020943211 0.14234485
0.056811277 0.021629671 0.14238466
0.048681397 0.028012866 0.142
0.059204664 0.028625304 0.14310001
0.060554273 0.029301202 0.14300002
0.048626658 0.031938102 0.14239287
0.072943084 0.031762991 0.14238006
0.075483233 0.032545075 0.1435
0.048194375 0.037163787 0.1407
0.049381558 0.042528372 0.14094377
0.05055045 0.043094952 0.14028576
0.059386771 0.043359876 0.14037499
0.060065284 0.042460591 0.14050001
0.049398467 0.047144894 0.14211866
0.052277397 0.047977041 0.14170809
0.056914989 0.049012911 0.14026026
0.059573259 0.014897815 0.1485
0.061373819 0.014508078 0.14886668
0.078678943 0.013981998 0.149
0.054701496 0.018831311 0.145
0.057348184 0.017819114 0.14580654
0.061143644 0.016270313 0.14893335
0.078630619 0.01569733 0.149
0.0543143 0.021945368 0.14578572
0.057073854 0.022142699 0.14694735
0.060708135 0.023505403 0.14863157
0.059246968 0.028144296 0.14500001
0.061287034 0.028199255 0.1471111
0.048848603 0.034179665 0.1456154
0.063458391 0.030048132 0.149
0.074297205 0.031274334 0.14575861
0.077147312 0.031958386 0.1483167
0.048321854 0.037874609 0.14549997
0.048501503 0.042521045 0.1458652
0.074589081 0.0082793487 0.15300001
0.059650235 0.014429808 0.15081818
0.062292885 0.012704857 0.15326303
0.065088458 0.014451193 0.15400001
0.078126296 0.012768703 0.15153618
0.059040904 0.015202257 0.15080002
0.062352594 0.017484238 0.15111619
0.065088458 0.017172961 0.15400003
0.07851851 0.017435396 0.15199997
0.062002931 0.021691155 0.15122643
0.07925497 0.021698106 0.15279414
0.08023154 0.02294969 0.15269569
0.063397668 0.028194664 0.1522195
0.066181146 0.029483626 0.15355004
0.072596096 0.02954768 0.15384997
0.077873111 0.029612008 0.15275905
0.080757886 0.027208488 0.15386042
0.064493589 0.03030101 0.15066668
0.068159029 0.031014465 0.15313254
0.072711036 0.031359419 0.15310954
0.076594003 0.030675815 0.15133336
0.064631477 0.009895524 0.155
0.067916654 0.0097698607 0.15500002
0.072958663 0.0095375534 0.15565003
0.07665424 0.0092083393 0.15503229
0.064544477 0.011500137 0.155
0.067539766 0.012395105 0.15606362
0.072493784 0.012711329 0.15709317
0.076561064 0.012664678 0.15622284
0.080348454 0.010843867 0.156
0.064757138 0.019571524 0.155
0.067724571 0.016974483 0.15783909
0.072094515 0.01606879 0.15878211
0.077661462 0.01704568 0.15735631
0.064254493 0.021079473 0.155
0.06607575 0.022045754 0.15871428
0.079186492 0.023009816 0.15673847
0.080098756 0.024503771 0.156
0.064802922 0.027558178 0.15685716
0.067390032 0.028410923 0.15738852
0.072415963 0.028216215 0.15685022
0.077897914 0.027633755 0.15634608
0.080469683 0.027025657 0.15540914
0.068435706 0.030161349 0.15513334
0.071921945 0.03213875 0.1552857
0.069236107 0.019051263 0.16024327
0.072762564 0.018451255 0.16070831
0.076914981 0.018398227 0.16086841
0.068786956 0.022760322 0.16229036
0.07254488 0.022698032 0.1629055
0.077388212 0.022589061 0.16156529
0.08005549 0.021764928 0.16100001
0.068245195 0.026316524 0.16086902
0.072314389 0.026097631 0.16134742
0.077488981 0.026045471 0.16096
