# .PCD v0.7 - Point Cloud Data file format
VERSION 0.7
FIELDS x y z
SIZE 4 4 4
TYPE F F F
COUNT 1 1 1
WIDTH 96
HEIGHT 1
VIEWPOINT 0 0 0 1 0 0 0
POINTS 96
DATA ascii
0.067543522 -0.085780971 0.31400007
0.080397829 -0.085208684 0.31350002
0.089945465 -0.085344583 0.31400001
0.067098022 -0.084453598 0.31400001
0.082232967 -0.082044497 0.3128888
0.087473966 -0.082371674 0.31339136
0.090454601 -0.083986893 0.31400001
0.082744837 -0.079234958 0.31400001
0.08561781 -0.079234958 0.31400001
0.061636273 -0.090841517 0.31900001
0.059825923 -0.088082895 0.31900001
0.06245571 -0.087387383 0.31760424
0.06718 -0.086018719 0.31522223
0.072494552 -0.086258672 0.31518745
0.077402405 -0.086141251 0.31580001
0.092941284 -0.085945167 0.31633338
0.095316045 -0.086521834 0.31833336
0.063589461 -0.083009273 0.31685713
0.067546651 -0.082383633 0.31529984
0.072502293 -0.082546487 0.3161923
0.077436768 -0.082393765 0.31639683
0.088607356 -0.080859989 0.31512505
0.092565022 -0.082540996 0.31683716
0.095515661 -0.083600119 0.31900001
0.064609967 -0.078902654 0.31760001
0.067454688 -0.07770367 0.31721213
0.072163351 -0.077982172 0.31806907
0.077660099 -0.078024738 0.31804854
0.082270794 -0.077198282 0.31584734
0.087575436 -0.077665552 0.31598237
0.091616653 -0.077990212 0.31802943
0.068369292 -0.074553199 0.31880003
0.070946634 -0.074806996 0.31900001
0.079351828 -0.073513895 0.31900001
0.082488321 -0.07261619 0.31800008
0.087281726 -0.072679006 0.3182098
0.090493493 -0.073363714 0.3188
0.058266394 -0.091663808 0.32308692
0.060236953 -0.091139764 0.32050005
0.058798656 -0.087765992 0.32188463
0.060278572 -0.086361632 0.320375
0.095963836 -0.088100947 0.32011116
0.059497293 -0.082603507 0.32339999
0.061693039 -0.08218687 0.32161915
0.094258495 -0.080489576 0.32000002
0.095868021 -0.082197435 0.32017648
0.059712935 -0.0783436 0.324
0.062824965 -0.077644937 0.3222
0.065346636 -0.075918585 0.32020006
0.073676884 -0.075387396 0.32000002
0.076543003 -0.075560354 0.32000002
0.093347237 -0.077229261 0.32027277
0.095891379 -0.079398371 0.32083333
0.064328879 -0.072916619 0.32370001
0.067280591 -0.072461948 0.32196671
0.072422206 -0.07247211 0.32178953
0.077334672 -0.072147474 0.32128572
0.080768026 -0.070371725 0.32000002
0.089333393 -0.070415385 0.32020003
0.091626622 -0.07141231 0.32063165
0.068013474 -0.068960838 0.32399994
0.072058648 -0.069149971 0.32399994
0.078218676 -0.068533875 0.32357582
0.082520336 -0.067366093 0.32150719
0.087400004 -0.067505904 0.32164517
0.091832764 -0.067616001 0.32353663
0.083214268 -0.063913614 0.32373327
0.087056428 -0.063810721 0.32369995
0.090445906 -0.064421825 0.324
0.057789344 -0.088334359 0.32500002
0.059370257 -0.081922881 0.32500005
0.059370257 -0.079375848 0.32500002
0.061357655 -0.075983122 0.32741672
0.096563518 -0.076371044 0.32793754
0.063315533 -0.072638616 0.32753131
0.065037757 -0.070850678 0.32700002
0.096549004 -0.072678834 0.32814714
0.064256586 -0.067967035 0.32870004
0.066916816 -0.067068234 0.32589355
0.072902948 -0.06703914 0.32533327
0.076937094 -0.066603869 0.32551345
0.094037078 -0.066710144 0.3253077
0.096378863 -0.067889929 0.32840005
0.057456858 -0.086609229 0.33189473
0.058848094 -0.082837604 0.33400005
0.059524655 -0.075715296 0.33325002
0.060428496 -0.075428002 0.33080003
0.059479922 -0.072457626 0.33400005
0.061124008 -0.072359942 0.33103123
0.062773764 -0.067514166 0.33179489
0.065099351 -0.065079741 0.33000001
0.057756864 -0.085258365 0.33500001
0.057975236 -0.082073398 0.33605266
0.058252163 -0.077790484 0.3371923
0.058362927 -0.072493874 0.33661538
0.060110666 -0.070411287 0.33500001
