# .PCD v0.7 - Point Cloud Data file format
VERSION 0.7
FIELDS x y z
SIZE 4 4 4
TYPE F F F
COUNT 1 1 1
WIDTH 171
HEIGHT 1
VIEWPOINT 0 0 0 1 0 0 0
POINTS 171
DATA ascii
0.091163985 -0.025394825 0.211
0.074217819 -0.022843495 0.21351287
0.077340566 -0.022252264 0.21116152
0.082385398 -0.022134066 0.21043278
0.087551065 -0.022203624 0.21095477
0.091469936 -0.022350678 0.21122742
0.078141943 -0.018117327 0.21253711
0.082512125 -0.017642815 0.21234399
0.087252364 -0.01777469 0.2128167
0.091264874 -0.018853912 0.21267648
0.079228252 -0.014675333 0.21400003
0.081117421 -0.014675332 0.214
0.086110219 -0.014790996 0.21400002
0.07270021 -0.026674397 0.21781817
0.075914189 -0.026070392 0.21545455
0.094410941 -0.0274712 0.21825002
0.095756739 -0.026558883 0.21900001
0.073016264 -0.022598177 0.21749367
0.073871903 -0.017695868 0.21715944
0.076359972 -0.016995162 0.21589474
0.083549403 -0.015557335 0.215
0.089606538 -0.015949523 0.21500002
0.09170226 -0.016589366 0.21531585
0.074334115 -0.013815865 0.21821429
0.077543549 -0.012645405 0.21725711
0.082589053 -0.012427039 0.21584083
0.087555647 -0.012535216 0.21624355
0.091017999 -0.012904266 0.21752633
0.079133056 -0.0092302831 0.21893753
0.082403444 -0.0086759711 0.21867695
0.086668588 -0.0092842374 0.21884613
0.062609911 -0.030314708 0.22315386
0.066033691 -0.030300679 0.22157146
0.098405488 -0.030410906 0.22200003
0.10112154 -0.030418754 0.223
0.063116446 -0.027390897 0.22221354
0.067494497 -0.027299864 0.2209757
0.070678741 -0.027357355 0.22004761
0.098043047 -0.027764603 0.22091219
0.1006843 -0.027447574 0.22254547
0.063353248 -0.023900079 0.22366667
0.06779395 -0.02325042 0.22303346
0.071077056 -0.022070449 0.22127539
0.098480761 -0.024182133 0.22274999
0.1003038 -0.024925489 0.22400001
0.072094694 -0.0176195 0.22228162
0.073364995 -0.012479201 0.22188406
0.075385377 -0.010627802 0.22000001
0.074085176 -0.0081207529 0.22204167
0.077258006 -0.0073858052 0.22103547
0.082403965 -0.0062467833 0.22052547
0.087668449 -0.0070879734 0.22037494
0.090835951 -0.0078166444 0.22132148
0.077936403 -0.0033681365 0.22361903
0.08249186 -0.0026282042 0.2226457
0.087654501 -0.0026088688 0.2229396
0.091001444 -0.0033853154 0.22389999
0.061682627 -0.031728785 0.22695836
0.10142878 -0.03253679 0.22900002
0.061260641 -0.027156867 0.22594444
0.10310877 -0.026442505 0.22738096
0.062847883 -0.021747647 0.22625358
0.06701763 -0.020799113 0.22554174
0.099536277 -0.02162312 0.22581249
0.10180749 -0.022010325 0.22821628
0.063498855 -0.01744315 0.22788239
0.067537591 -0.017364517 0.22684728
0.07080029 -0.016673908 0.22641669
0.098944984 -0.016665919 0.22812003
0.10079188 -0.018917898 0.22881818
0.064607009 -0.014094958 0.22900002
0.067818798 -0.013654311 0.22870736
0.071636744 -0.012463659 0.22710772
0.094616145 -0.010501328 0.22625001
0.097437002 -0.01235323 0.22767866
0.073062144 -0.0072326078 0.22628266
0.09382727 -0.0075145671 0.22633335
0.096526437 -0.009120455 0.22843751
0.092111081 -0.0030759803 0.22513331
0.062428098 -0.035688967 0.23350003
0.10233591 -0.036343597 0.23233336
0.062101714 -0.033811681 0.23210713
0.10248231 -0.033626873 0.23131582
0.061338134 -0.025279393 0.23400001
0.061461501 -0.023455009 0.23375002
0.10356279 -0.022191232 0.23016667
0.062341679 -0.017389944 0.23194446
0.1017888 -0.01720907 0.23033327
0.063933879 -0.012176279 0.23171701
0.067329861 -0.011444703 0.23060855
0.070918225 -0.01116527 0.23
0.099623993 -0.011061064 0.23028573
0.10162367 -0.013162052 0.23173524
0.064425863 -0.0084938603 0.23327777
0.067715488 -0.0075990208 0.23266068
0.071536236 -0.0071839364 0.23151998
0.094723821 -0.0074437056 0.23
0.097546868 -0.0075584021 0.23126827
0.064118601 -0.040846724 0.23727272
0.066957153 -0.041131046 0.23843993
0.097583182 -0.041159455 0.23840426
0.10085604 -0.040609401 0.23711112
0.062827587 -0.038185555 0.23644643
0.066553645 -0.03810522 0.23813209
0.09861052 -0.038647007 0.23872003
0.1013386 -0.03775819 0.23751475
0.060662739 -0.032030173 0.23747997
0.066084184 -0.034577865 0.23642859
0.10135952 -0.034112841 0.23799996
0.061082926 -0.027694577 0.23797055
0.059721433 -0.022161882 0.2389167
0.061004154 -0.02236959 0.2367778
0.059376594 -0.019459859 0.23800002
0.061177917 -0.017427199 0.23642382
0.061736435 -0.012542816 0.23608868
0.10237163 -0.011098398 0.23500001
0.069117062 -0.041372906 0.24020003
0.071106344 -0.042110939 0.24256249
0.092715532 -0.04148576 0.24163076
0.095356129 -0.041152999 0.24000001
0.068901755 -0.037193615 0.24057578
0.070612691 -0.037379857 0.24300003
0.093202315 -0.037609898 0.2422282
0.09680184 -0.03692054 0.24043992
0.10026912 -0.035656281 0.24000001
0.068912022 -0.034765754 0.24125001
0.070395507 -0.034919951 0.24300002
0.094210729 -0.033869423 0.24325
0.097674623 -0.033118531 0.24218081
0.10075103 -0.033079192 0.24138097
0.060809512 -0.026861539 0.24000001
0.059408575 -0.023592696 0.24000001
0.060576022 -0.023203548 0.24000001
0.073587298 -0.04575929 0.24800003
0.075706802 -0.045435429 0.24880002
0.084447771 -0.047591593 0.24900001
0.087479904 -0.046417288 0.24862494
0.090932816 -0.046259146 0.24799998
0.073311813 -0.042629939 0.24556254
0.075547934 -0.042163912 0.24827777
0.088695832 -0.043833744 0.24879315
0.09091904 -0.042559113 0.24763046
0.072969593 -0.037777025 0.24645451
0.075363591 -0.03981958 0.24900001
0.09133184 -0.037426651 0.24702322
0.087206677 -0.031206436 0.24900001
0.092960536 -0.032107498 0.24671052
0.097341277 -0.030701345 0.24499992
0.093909331 -0.02964727 0.24611112
0.096751377 -0.029614909 0.24511112
0.074855529 -0.04687066 0.25
0.077969171 -0.046415318 0.25006524
0.082314216 -0.046485573 0.25
0.085530087 -0.045384329 0.25
0.078365088 -0.042354234 0.25129697
0.082598716 -0.042357303 0.25153708
0.08712776 -0.041832432 0.25075611
0.090259306 -0.040384859 0.25
0.074855529 -0.03689874 0.25
0.077739425 -0.037773877 0.25271842
0.082665987 -0.037612617 0.25371945
0.087703586 -0.03760222 0.25305003
0.090775073 -0.036984418 0.25143331
0.076654926 -0.03491962 0.25224999
0.083302088 -0.034433566 0.25394118
0.088069536 -0.033184949 0.25271994
0.091060609 -0.033171408 0.25131255
0.079505682 -0.035265855 0.25550002
0.080798224 -0.035348732 0.25520003
0.08141765 -0.034990512 0.25500003
0.086896122 -0.033801787 0.25500003
