# .PCD v0.7 - Point Cloud Data file format
VERSION 0.7
FIELDS x y z
SIZE 4 4 4
TYPE F F F
COUNT 1 1 1
WIDTH 142
HEIGHT 1
VIEWPOINT 0 0 0 1 0 0 0
POINTS 142
DATA ascii
0.062837541 0.02824313 0.119
0.059326142 0.028525913 0.12387723
0.061557613 0.028949149 0.12204514
0.059824254 0.030959008 0.1236
0.062342245 0.032450434 0.12265428
0.063872471 0.036129225 0.12369358
0.065176189 0.036240716 0.12400001
0.05740992 0.027579941 0.1277571
0.060646385 0.027827775 0.12660001
0.058976095 0.032321915 0.12780415
0.060760532 0.034085311 0.12606779
0.058974423 0.035307821 0.12900001
0.062062073 0.037486788 0.12656383
0.066119798 0.038738925 0.1267083
0.062993526 0.041485526 0.12844786
0.066007189 0.041104686 0.12812762
0.054607254 0.024180615 0.13229997
0.056023352 0.024088485 0.1323906
0.054475721 0.02767246 0.13252454
0.055844814 0.027597232 0.13150477
0.054337811 0.032332763 0.13329846
0.056637798 0.032395553 0.13192241
0.054752372 0.035134729 0.134
0.058323782 0.037421145 0.13213368
0.060512975 0.038189482 0.13072222
0.059008796 0.04181385 0.13343114
0.061585005 0.042881008 0.1316395
0.067612059 0.043437924 0.13098055
0.070122376 0.044936325 0.133
0.06310305 0.046785783 0.13276139
0.06712316 0.047189649 0.13275285
0.070106424 0.046577841 0.134
0.064333141 0.050116308 0.134
0.067427382 0.050494403 0.13325
0.060664423 0.019917747 0.13900001
0.058357671 0.022209466 0.1368818
0.060357001 0.020682869 0.1384
0.054069292 0.033661567 0.13579999
0.056712441 0.034609672 0.13500001
0.054317698 0.037545085 0.13834445
0.056156319 0.037797153 0.13613041
0.05469181 0.040833149 0.13900003
0.057176888 0.04259216 0.13717094
0.0603415 0.044955373 0.13500001
0.058720946 0.046836197 0.13768885
0.061677415 0.047994137 0.13541108
0.067611076 0.049619839 0.13507406
0.071138859 0.048256088 0.13594346
0.059701834 0.051272705 0.13830435
0.062600411 0.051620763 0.13674496
0.066944897 0.051746823 0.13605802
0.058363713 0.018587856 0.14258191
0.060942914 0.018093361 0.14222419
0.058312535 0.021478228 0.14237258
0.06030634 0.020061038 0.14
0.056233462 0.028090006 0.14259999
0.060671154 0.025128264 0.14300001
0.055890985 0.031648804 0.14288236
0.069267534 0.032308649 0.14400001
0.053834002 0.038489535 0.14045455
0.054428466 0.04250985 0.14249277
0.055448055 0.043659214 0.14027657
0.054431256 0.045889921 0.14400004
0.056752753 0.047869306 0.14132285
0.059029132 0.014489351 0.14900002
0.060076043 0.014585989 0.149
0.057489555 0.016952151 0.14673942
0.062492073 0.016568491 0.14761904
0.057421409 0.022896044 0.14695005
0.063604437 0.023926636 0.1476
0.065632753 0.022317061 0.149
0.057229277 0.026398608 0.14751612
0.063410148 0.028101778 0.14826317
0.068455599 0.029678889 0.14685717
0.055973396 0.03355813 0.14525001
0.064712316 0.030086443 0.148
0.068349682 0.030428175 0.14685182
0.073817804 0.032107927 0.14860602
0.076435462 0.032092515 0.14833333
0.055877052 0.035119232 0.14500001
0.054091569 0.043142531 0.1452941
0.073680744 0.0096191522 0.15380004
0.077518746 0.0096842591 0.15242857
0.080016628 0.0095807668 0.15200001
0.05959481 0.013954227 0.14999999
0.062788077 0.012833409 0.15255445
0.065949395 0.012689854 0.15373993
0.074070334 0.011936735 0.15348236
0.077415802 0.012245312 0.15286498
0.080422699 0.012328684 0.15316673
0.062423829 0.016467875 0.15192157
0.065835819 0.01662113 0.15204352
0.07813777 0.015371395 0.15400001
0.056855991 0.02233674 0.15145653
0.067495763 0.023611456 0.15309085
0.056888212 0.027824281 0.15363066
0.067484468 0.027913744 0.15216284
0.072132096 0.029446242 0.15322219
0.078483582 0.029587755 0.15299997
0.08027681 0.02944766 0.1524
0.056723259 0.03178113 0.15396823
0.067482591 0.030683329 0.15180002
0.073269658 0.030996203 0.15290909
0.077358581 0.030879745 0.1519817
0.057597362 0.036549933 0.15400001
0.06861788 0.0094958851 0.15550002
0.071571514 0.0095030461 0.15570734
0.064191662 0.014482198 0.15499999
0.067655362 0.012194481 0.15571961
0.072042763 0.012870042 0.15678966
0.076138571 0.014670694 0.155
0.08134456 0.01426578 0.15499999
0.064003155 0.016072312 0.155
0.067469612 0.016410017 0.1566667
0.073270924 0.016944816 0.15762666
0.077263683 0.017685195 0.15650508
0.081771269 0.017898524 0.15742868
0.068606399 0.021782033 0.15710531
0.072807036 0.022664484 0.15815383
0.076944202 0.021095999 0.15884852
0.082429744 0.020729722 0.15899998
0.068547696 0.027183065 0.15527506
0.072652496 0.027581878 0.15708032
0.077569351 0.028230458 0.15655486
0.081490107 0.027418632 0.15696068
0.056257129 0.034002934 0.15558828
0.06922207 0.031206846 0.156
0.07370539 0.033075295 0.15535712
0.075821303 0.031375594 0.15541175
0.056830987 0.036691401 0.1565287
0.057333596 0.040059961 0.156
0.069903679 0.018331252 0.16000001
0.07175862 0.018293014 0.16017304
0.084487461 0.018516559 0.16000001
0.069440402 0.023445766 0.16000001
0.07295014 0.022269724 0.16047053
0.07763201 0.023325082 0.16000746
0.082379848 0.023089292 0.16065022
0.085015513 0.023273237 0.16100001
0.074585803 0.025881547 0.16000003
0.077282026 0.026305558 0.1600512
0.081738591 0.025576876 0.16022001
