# .PCD v0.7 - Point Cloud Data file format
VERSION 0.7
FIELDS x y z
SIZE 4 4 4
TYPE F F F
COUNT 1 1 1
WIDTH 145
HEIGHT 1
VIEWPOINT 0 0 0 1 0 0 0
POINTS 145
DATA ascii
-0.0074065025 -0.073330082 0.294
-0.015435995 -0.072173044 0.29725
-0.012464209 -0.072381459 0.29620954
-0.0077627385 -0.072049163 0.29509094
-0.0026061386 -0.072009578 0.2951667
0.0023085701 -0.072042115 0.29636356
-0.015182355 -0.068809487 0.29880002
-0.012255514 -0.068372615 0.29803926
-0.0074839708 -0.067459665 0.29735515
-0.0025460667 -0.067561999 0.29685524
0.0022777617 -0.06757497 0.29745951
-0.0067743906 -0.064122848 0.29900002
-0.002005588 -0.064153694 0.29900002
0.0011941819 -0.064008251 0.29900002
-0.017418256 -0.075725712 0.30400002
0.004755347 -0.075847626 0.3035
0.0081039127 -0.077017665 0.30318373
0.011863905 -0.077870548 0.30399993
0.0046098307 -0.074247755 0.30200002
0.0070783994 -0.072801083 0.30287236
-0.015747242 -0.067993075 0.30033338
-0.012942326 -0.066013686 0.30008703
-0.0098925428 -0.065487057 0.30000001
0.0040566102 -0.065721974 0.30033335
0.0060519185 -0.068963714 0.30260003
-0.015506086 -0.063140571 0.30274999
-0.01261002 -0.06260404 0.3017846
-0.0075662979 -0.062161915 0.3007164
-0.0023014313 -0.061973922 0.30075011
0.0021833424 -0.062292822 0.30109528
-0.012486121 -0.05877202 0.30391663
-0.0074035022 -0.057788789 0.30309683
-0.0025818786 -0.058303315 0.30334786
0.001195167 -0.058856495 0.30358821
-0.025866844 -0.080901548 0.30775002
-0.024008173 -0.080712415 0.30760002
0.012903473 -0.080425695 0.30500004
0.016766682 -0.080635183 0.30714288
-0.026824683 -0.077381007 0.30783337
-0.022480452 -0.0773298 0.30691668
-0.01837562 -0.077257566 0.30591679
0.0135795 -0.076735213 0.30518514
0.016498964 -0.077474914 0.30765629
-0.028226331 -0.074841827 0.30900002
-0.021530228 -0.074098073 0.30876195
-0.019012297 -0.073562227 0.30785003
0.0090734465 -0.071502119 0.30555001
0.012527244 -0.072511159 0.30663893
0.016452054 -0.073090516 0.30845714
-0.018205769 -0.06945578 0.30900002
0.0045792582 -0.066034168 0.30825001
0.0075873644 -0.067265511 0.30727115
0.01194011 -0.06877812 0.30864519
-0.015497383 -0.060808849 0.30500001
0.004086263 -0.062144089 0.30773917
0.0066917469 -0.062424585 0.30794737
-0.015345937 -0.056884367 0.30550003
-0.012293137 -0.056204103 0.30506065
-0.0071890736 -0.055352397 0.30500004
-0.0023351798 -0.055864669 0.30507687
0.0028958297 -0.057065222 0.30695161
0.0061298814 -0.058934197 0.30900002
-0.015350654 -0.053905398 0.30700004
-0.012299261 -0.05262297 0.30692196
-0.0071904436 -0.052468807 0.30623809
-0.0023473888 -0.052577358 0.30686674
0.0017716098 -0.052775361 0.30788094
-0.012328577 -0.049452871 0.30895457
-0.026181417 -0.0752097 0.31
-0.024296481 -0.0752097 0.31
0.016753232 -0.0778905 0.31
-0.026461666 -0.072512791 0.31182495
-0.022779256 -0.071804456 0.31117317
-0.019029021 -0.070723586 0.31016669
0.016885305 -0.070589937 0.31018183
-0.026465053 -0.068025716 0.31372422
-0.022201182 -0.067837894 0.31347734
-0.018999405 -0.067806475 0.31214997
0.0095485877 -0.06549181 0.31
0.012928069 -0.066605635 0.31065795
0.016267439 -0.067854285 0.31206065
-0.020282336 -0.064979173 0.31400001
-0.01859859 -0.064494662 0.31350002
0.0093211932 -0.062497761 0.31170368
0.012422428 -0.062929951 0.31314003
0.015229855 -0.064597324 0.31400001
0.0048571914 -0.055857696 0.31
0.0076819262 -0.057496488 0.31163272
0.010571267 -0.05932777 0.31400004
0.0043057422 -0.052172717 0.31075996
0.0068754633 -0.052657418 0.31261227
-0.026535813 -0.065749571 0.31614292
-0.023376068 -0.06580615 0.31520003
0.017193699 -0.066105478 0.31500003
-0.026349423 -0.064307377 0.31887501
-0.022319559 -0.06270957 0.31677052
-0.019144813 -0.062128916 0.31658331
0.013776111 -0.060761601 0.31510004
0.016616479 -0.062340293 0.31560969
-0.021481393 -0.059075646 0.3187778
-0.019185044 -0.058033403 0.31850004
0.012578149 -0.057183422 0.31626987
0.016356684 -0.057984933 0.31796974
-0.021451153 -0.090370394 0.32218185
-0.017023372 -0.090680815 0.32352936
0.0088464376 -0.090370081 0.32100004
0.012241987 -0.090370081 0.32100001
-0.025780348 -0.087286144 0.32276925
-0.02218489 -0.087560892 0.32280004
-0.018079065 -0.088166729 0.32351607
0.0081444075 -0.08798103 0.32130557
0.01258276 -0.087897271 0.32092851
0.015602169 -0.087919913 0.32128572
-0.021932477 -0.084680386 0.322375
-0.019069904 -0.08447396 0.32366669
-0.026264099 -0.061671905 0.32063642
-0.024301942 -0.061032172 0.32000002
-0.026387662 -0.057560537 0.32209378
-0.022595452 -0.057156622 0.32067448
-0.014229883 -0.091282994 0.32707149
-0.016540114 -0.087069213 0.32684851
-0.014530743 -0.088497557 0.32785717
-0.016390711 -0.084584475 0.32680002
-0.014375652 -0.08462625 0.32833338
-0.011312395 -0.09571331 0.33216667
-0.007294226 -0.096209958 0.33236659
-0.0025027175 -0.096308842 0.33230767
0.0022026761 -0.09615849 0.3319999
0.005410308 -0.095827304 0.33160004
-0.011552276 -0.092297919 0.33183327
-0.0074112942 -0.092775658 0.33346295
-0.0019883346 -0.092934288 0.33338642
0.0026565904 -0.092317998 0.33280432
0.0055100187 -0.093148053 0.33166671
-0.012814402 -0.088026844 0.33114633
-0.0099305687 -0.089155853 0.33400002
0.0046916679 -0.088885069 0.33400002
-0.01355719 -0.084877647 0.33000001
-0.0064295935 -0.090726443 0.33500001
-0.002491497 -0.090735488 0.33500001
0.0015823964 -0.090509154 0.33500001
-0.010744902 -0.08743111 0.33500001
-0.0073252968 -0.087834857 0.33590588
-0.0023085219 -0.087777108 0.3360202
0.0020240142 -0.088027574 0.33539405
