# .PCD v0.7 - Point Cloud Data file format
VERSION 0.7
FIELDS x y z
SIZE 4 4 4
TYPE F F F
COUNT 1 1 1
WIDTH 187
HEIGHT 1
VIEWPOINT 0 0 0 1 0 0 0
POINTS 187
DATA ascii
-0.055029977 -0.022665361 0.21300001
-0.053116385 -0.021338852 0.21327034
-0.047892358 -0.02059315 0.21300003
-0.040957633 -0.020793928 0.21400002
-0.037137147 -0.020988965 0.21400008
-0.032848541 -0.020667758 0.21270004
-0.026881503 -0.020800406 0.21309528
-0.024753187 -0.021210317 0.21400002
-0.051940512 -0.018859254 0.21356757
-0.047249697 -0.017571835 0.21240976
-0.042663068 -0.018311141 0.21341187
-0.037548456 -0.019466691 0.21400009
-0.03186461 -0.017866708 0.21284531
-0.027973631 -0.018215027 0.21317653
-0.046779729 -0.014212028 0.21394295
-0.044581212 -0.014295297 0.21400002
-0.031037565 -0.014636778 0.214
-0.029611051 -0.014790996 0.21400002
-0.017590405 -0.025221348 0.21900001
-0.055564817 -0.023604903 0.21850002
-0.052719876 -0.022159128 0.21600001
-0.042473748 -0.020960817 0.215
-0.035327207 -0.021483734 0.215
-0.025798488 -0.020786513 0.215
-0.022155751 -0.021607948 0.21631941
-0.018904699 -0.022482602 0.21867792
-0.055307843 -0.017238673 0.21606666
-0.053388048 -0.017183531 0.21663432
-0.049968902 -0.015557335 0.215
-0.041903421 -0.016120862 0.21512827
-0.03737719 -0.017108673 0.21575503
-0.034275711 -0.016782468 0.21542105
-0.026402045 -0.016730811 0.21525006
-0.022789568 -0.017715333 0.21700734
-0.019631702 -0.01945073 0.21879999
-0.055695347 -0.014356372 0.2187143
-0.052214719 -0.013534403 0.21845829
-0.047540076 -0.011829358 0.21614769
-0.042491019 -0.012526796 0.21672326
-0.03781933 -0.0128586 0.21798429
-0.032322999 -0.012486877 0.21654631
-0.027479665 -0.012577673 0.21694317
-0.024071477 -0.013592547 0.21837208
-0.046990182 -0.0078380136 0.21848421
-0.043123998 -0.0085871723 0.21879025
-0.038683202 -0.0098101161 0.21900001
-0.031595789 -0.0086548319 0.21855552
-0.028218018 -0.0091310907 0.21883783
-0.056759179 -0.026113652 0.22239293
-0.017060991 -0.026108054 0.22092858
-0.014388911 -0.025193827 0.22000001
-0.05619444 -0.024556218 0.22122224
-0.054105982 -0.023385292 0.22258334
-0.020274775 -0.024480389 0.22000001
-0.0169596 -0.022519395 0.22121873
-0.020547206 -0.016493449 0.22031817
-0.018239764 -0.017514067 0.22208697
-0.056138553 -0.011894953 0.221628
-0.053590156 -0.011689429 0.22139025
-0.036106549 -0.010757129 0.22046667
-0.025209388 -0.010449442 0.22000001
-0.021941004 -0.012242854 0.22154203
-0.019324409 -0.013236599 0.22345716
-0.05591958 -0.0090434793 0.22288005
-0.052265909 -0.0082317283 0.22263044
-0.04870414 -0.0060510039 0.22031251
-0.041759577 -0.006760784 0.22048682
-0.037400465 -0.007575803 0.2217399
-0.032586548 -0.006661355 0.2207966
-0.027149381 -0.0070801545 0.22081317
-0.023250028 -0.0079567358 0.22280411
-0.0506014 -0.0038170451 0.22323079
-0.04725131 -0.0025713572 0.22184394
-0.042550191 -0.0026385789 0.22265905
-0.037994716 -0.0035900527 0.22356328
-0.032298777 -0.002826313 0.22254172
-0.027583793 -0.0026662946 0.22249995
-0.024509834 -0.004002762 0.22370589
-0.046734698 0.00093202281 0.22366667
-0.043447483 0.00034318762 0.22400001
-0.031357951 0.00046582823 0.22400001
-0.028185965 0.00028092397 0.22400001
-0.056189928 -0.030278303 0.22600001
-0.056042355 -0.027888641 0.22624592
-0.054447651 -0.026863724 0.2284483
-0.020547232 -0.029380638 0.22900002
-0.018972352 -0.029214371 0.22866669
-0.053832583 -0.023886757 0.22817649
-0.016248025 -0.020674421 0.22516668
-0.016231887 -0.016783096 0.22580549
-0.020188328 -0.010078887 0.22500001
-0.017516084 -0.012071147 0.22691669
-0.014693787 -0.012206336 0.22750002
-0.056428161 -0.0063810032 0.22708832
-0.054101609 -0.0066973795 0.22637148
-0.021163672 -0.0067568892 0.22550002
-0.018494582 -0.0077064666 0.22779313
-0.055806641 -0.0036659988 0.22893754
-0.052888669 -0.0026115305 0.22726668
-0.040618598 -0.00022857863 0.22500001
-0.037355255 -0.0012568171 0.22571702
-0.034386288 -0.0010400026 0.22533335
-0.025275435 -0.00080263062 0.22528574
-0.022315525 -0.0025721239 0.22665219
-0.019532328 -0.0032664461 0.22888239
-0.056032546 -0.031228326 0.23281817
-0.054241478 -0.030652545 0.23236364
-0.020486603 -0.031606894 0.23140006
-0.018440604 -0.032022044 0.23217243
-0.053529002 -0.027994521 0.23080845
-0.02124284 -0.029572679 0.23050001
-0.017795103 -0.029491911 0.23133333
-0.053551808 -0.0245184 0.23041669
-0.01578882 -0.015337463 0.23
-0.015657147 -0.012243662 0.23012501
-0.014712541 -0.011206146 0.23066668
-0.016408065 -0.0070077693 0.23138455
-0.055939104 -0.0015177842 0.23043749
-0.054307528 -0.00071314414 0.23000002
-0.017799145 -0.0024485455 0.23179513
-0.057278018 -0.036594257 0.23863888
-0.020669436 -0.035895243 0.23900001
-0.01849791 -0.036262173 0.23766668
-0.057017721 -0.033579212 0.23651855
-0.05442765 -0.031659771 0.23583335
-0.016781256 -0.031817429 0.23700002
-0.053168319 -0.02860418 0.23533335
-0.015588931 -0.0062110112 0.23511113
-0.051944174 -0.040701434 0.24305885
-0.036037028 -0.042481788 0.24400002
-0.034949038 -0.042580698 0.24400002
-0.021460053 -0.040337417 0.243
-0.055469066 -0.037381995 0.24083875
-0.053282324 -0.037551448 0.24277927
-0.021022972 -0.038278151 0.24219236
-0.017805159 -0.03692152 0.24146432
-0.055293769 -0.033579338 0.24088237
-0.05428547 -0.03299024 0.24316218
-0.016936582 -0.033975951 0.24146156
-0.055126358 -0.026755344 0.24400002
-0.0546351 -0.027469499 0.24384615
-0.054335091 -0.024777174 0.24400002
-0.050809141 -0.041380223 0.24529412
-0.047708005 -0.041977916 0.24662495
-0.042710725 -0.041894343 0.24668746
-0.037438527 -0.041269578 0.24529542
-0.032435786 -0.042121626 0.24646513
-0.027861394 -0.042036001 0.24673137
-0.024042146 -0.041248176 0.24573685
-0.051123235 -0.036895629 0.2460517
-0.048056141 -0.03824323 0.24763842
-0.042308338 -0.037814431 0.24724711
-0.037457939 -0.037323829 0.24666668
-0.033005752 -0.038083978 0.24748802
-0.027089886 -0.038294941 0.24773335
-0.023898836 -0.037986629 0.24625644
-0.052220386 -0.032480072 0.24717212
-0.049526982 -0.034167208 0.24900001
-0.041268066 -0.032665934 0.24884854
-0.038337201 -0.033284351 0.24866068
-0.034453981 -0.034570947 0.24900001
-0.025722198 -0.034097787 0.24850002
-0.053624198 -0.027643248 0.24709672
-0.040913839 -0.029726053 0.24900001
-0.054101255 -0.024780152 0.24533334
-0.046815298 -0.036412906 0.25008571
-0.044552688 -0.036041692 0.25
-0.031412382 -0.036804281 0.25121623
-0.028397715 -0.036462445 0.25070369
-0.050791059 -0.030946109 0.25007692
-0.047659803 -0.032321334 0.25126553
-0.043687858 -0.032360014 0.25091839
-0.036972724 -0.031574093 0.25043401
-0.032636382 -0.032596912 0.25206903
-0.028296273 -0.033819605 0.25261539
-0.051424485 -0.028004257 0.25059095
-0.048098829 -0.028500808 0.25299999
-0.041694846 -0.027901199 0.25125435
-0.037492793 -0.028041255 0.25101358
-0.03308741 -0.028635116 0.25340006
-0.028854055 -0.028972903 0.25300002
-0.030405257 -0.03093851 0.25500003
-0.028737595 -0.031183153 0.25500008
-0.046172235 -0.027685879 0.25500008
-0.044380534 -0.027134586 0.25500003
-0.030460386 -0.029477581 0.25500005
-0.029247541 -0.029532714 0.25500003
