# .PCD v0.7 - Point Cloud Data file format
VERSION 0.7
FIELDS x y z
SIZE 4 4 4
TYPE F F F
COUNT 1 1 1
WIDTH 190
HEIGHT 1
VIEWPOINT 0 0 0 1 0 0 0
POINTS 190
DATA ascii
0.033986926 -0.022332704 0.21370004
0.03762798 -0.022088245 0.21301123
0.041248161 -0.022699984 0.21353063
0.034697823 -0.019764524 0.21400002
0.037320111 -0.019318866 0.21369562
0.040365331 -0.019880187 0.21400003
0.014794494 -0.025789507 0.21900001
0.017416636 -0.026259445 0.21779166
0.022552395 -0.025807323 0.21728125
0.027285993 -0.025512744 0.21752942
0.030316919 -0.025202129 0.21700001
0.044398755 -0.025240844 0.21733335
0.048000246 -0.026118627 0.21733336
0.050074551 -0.026732173 0.21800001
0.018001217 -0.022859255 0.21815398
0.022232989 -0.02310271 0.21799023
0.027911838 -0.023329109 0.21809098
0.031585637 -0.022376893 0.21641172
0.035092369 -0.023924017 0.215
0.043626793 -0.022151878 0.21566153
0.047334522 -0.022710953 0.21759084
0.033290934 -0.017822798 0.21702348
0.037650086 -0.017003793 0.21569885
0.042469125 -0.017595135 0.21699142
0.046133041 -0.018994812 0.21879166
0.034203291 -0.014202672 0.21892311
0.037691221 -0.013405542 0.2180659
0.041188519 -0.013821328 0.21879998
0.017402297 -0.03046436 0.22400001
0.009013663 -0.026350368 0.22400001
0.01309755 -0.026951402 0.22257145
0.016831264 -0.028441563 0.22125001
0.02485018 -0.026620705 0.22000001
0.049519069 -0.02854285 0.22185715
0.051308446 -0.027401758 0.22218186
0.014060305 -0.022760648 0.22317392
0.015822336 -0.021558929 0.22100003
0.023533311 -0.020986408 0.22018744
0.026809238 -0.021233348 0.22038636
0.049403701 -0.020760067 0.22045457
0.050812263 -0.023413574 0.22105002
0.014623781 -0.019332133 0.22400001
0.017807709 -0.017595414 0.22159472
0.022562211 -0.017461129 0.22172515
0.027712882 -0.017712945 0.22224388
0.031177126 -0.016836993 0.22097915
0.044529181 -0.015502962 0.22000001
0.04776606 -0.017096354 0.22089653
0.050202537 -0.017913844 0.22328573
0.018337388 -0.013385263 0.22357994
0.022189293 -0.013497831 0.22373334
0.028966568 -0.014144576 0.22361539
0.032512899 -0.012519257 0.22194064
0.037000053 -0.011096011 0.22040001
0.042895768 -0.012082322 0.22078562
0.046808295 -0.013019742 0.22243036
0.034117095 -0.008086944 0.2229773
0.037500836 -0.0076409164 0.22225645
0.042076286 -0.0080650179 0.22286825
0.045470379 -0.0094897347 0.22355559
0.03438212 -0.0049492246 0.22400001
0.03726355 -0.0045254859 0.22400001
0.040314466 -0.0048281564 0.22400002
0.0087410789 -0.031186817 0.22637036
0.011092631 -0.030540705 0.22645457
0.017800862 -0.031492915 0.22613886
0.049280349 -0.030905612 0.226
0.050789937 -0.031060638 0.22653848
0.008836004 -0.02748074 0.22539388
0.011074819 -0.027379544 0.22530615
0.018451054 -0.029122885 0.22533336
0.048742458 -0.029016413 0.22514288
0.0090612751 -0.022398105 0.22819571
0.011542557 -0.022368211 0.22784378
0.052232649 -0.020840783 0.22820003
0.0088255089 -0.018231506 0.22900005
0.013845019 -0.017259814 0.22709809
0.015633464 -0.016352212 0.22600003
0.026481373 -0.015607409 0.22499998
0.049858317 -0.015186453 0.22500001
0.051708337 -0.017342158 0.2276552
0.014315909 -0.014070677 0.228375
0.016896579 -0.011695486 0.22651519
0.022868751 -0.011201468 0.22547552
0.027396621 -0.012189465 0.22634284
0.031150611 -0.010475223 0.2250769
0.048940253 -0.011529347 0.22596875
0.050706342 -0.012880473 0.22758333
0.018354606 -0.0076547009 0.2277572
0.022328861 -0.0073598651 0.22776118
0.027371813 -0.0082109636 0.22832464
0.031682726 -0.0072329803 0.22667074
0.043970395 -0.0061526285 0.22555995
0.04733504 -0.0073767868 0.2269659
0.050176285 -0.0092535112 0.22866669
0.018997505 -0.00416855 0.22900002
0.020544639 -0.0042551896 0.22900002
0.033262875 -0.0032054938 0.22692314
0.037524581 -0.0019794772 0.22598863
0.042576749 -0.0026037311 0.22676311
0.046106696 -0.0029788213 0.22845165
0.0096122706 -0.035068281 0.23100001
0.012246775 -0.035323147 0.23245454
0.016566653 -0.035523716 0.23400001
0.053216942 -0.035398729 0.23227271
0.0092192786 -0.033788383 0.2305294
0.012387242 -0.032975961 0.23198594
0.015856419 -0.033309624 0.23333335
0.04957376 -0.033314742 0.23071429
0.051947057 -0.033580892 0.23107891
0.010875926 -0.020372067 0.23
0.0096278619 -0.017320927 0.23042104
0.011366578 -0.017281724 0.231875
0.0092504593 -0.01373483 0.2332
0.012804122 -0.012553787 0.23234375
0.015537596 -0.010302862 0.23
0.051967468 -0.01152481 0.2313
0.014204177 -0.0079338932 0.23224241
0.016106205 -0.0068967948 0.23095003
0.024736624 -0.0052061044 0.23
0.027571326 -0.0058952319 0.23023805
0.049261443 -0.0055080038 0.23000002
0.051020142 -0.0077975136 0.23161902
0.014100627 -0.036341645 0.23569232
0.015964102 -0.036179882 0.23564711
0.054184992 -0.037514936 0.23833333
0.055953845 -0.037673421 0.23875001
0.014541726 -0.033465486 0.23500004
0.015113289 -0.033694115 0.23500001
0.05451465 -0.03287746 0.23542862
0.055695951 -0.033695698 0.23744446
0.0095270993 -0.012153964 0.23530774
0.011010749 -0.011504841 0.23500012
0.009533559 -0.0074911984 0.2378125
0.011684616 -0.0071886103 0.23739132
0.013845804 -0.040470656 0.24399999
0.015692094 -0.040365148 0.244
0.049780019 -0.041161947 0.24366668
0.05174068 -0.041409932 0.2420392
0.055127949 -0.040326059 0.24000001
0.013216291 -0.038934253 0.24313337
0.016878784 -0.038997453 0.24320002
0.052075796 -0.038557049 0.24133329
0.055672754 -0.03931427 0.24000001
0.018672878 -0.045611992 0.24713334
0.022383057 -0.046269327 0.24866669
0.033807702 -0.0457283 0.24853851
0.037071329 -0.045466166 0.2469584
0.042572118 -0.04570958 0.2468486
0.046460051 -0.045791566 0.24686369
0.013518805 -0.042349212 0.2450967
0.017540535 -0.04267979 0.24601126
0.021302452 -0.042731866 0.24832609
0.034185618 -0.042916991 0.24872419
0.037462682 -0.042514734 0.2476456
0.042470634 -0.042488787 0.24772717
0.047306832 -0.042528626 0.24646321
0.050385535 -0.044537514 0.24533334
0.01906506 -0.038500015 0.24668001
0.020716207 -0.038692225 0.24805264
0.034989484 -0.03981958 0.24900001
0.038028166 -0.039564587 0.24900004
0.041570466 -0.039698455 0.24900006
0.048289079 -0.038655404 0.24768628
0.050317615 -0.03825298 0.245
0.02453267 -0.046349488 0.25
0.027736302 -0.046667371 0.25092599
0.031505216 -0.046409167 0.25061285
0.023779918 -0.042109732 0.25121433
0.027572945 -0.042379029 0.25265554
0.03182302 -0.041999277 0.25112504
0.022464402 -0.038024448 0.25272337
0.029205475 -0.039040413 0.25399998
0.032926381 -0.037783124 0.25240743
0.037418649 -0.037289184 0.25059998
0.042649988 -0.037644312 0.25100008
0.046938397 -0.036901042 0.25066105
0.022101089 -0.034029596 0.25400001
0.034429248 -0.033466924 0.25365004
0.037497975 -0.032743238 0.25268325
0.042343974 -0.032662425 0.25280416
0.04727773 -0.033035882 0.25196603
0.038771983 -0.029336674 0.25260001
0.027011916 -0.040365618 0.25500005
0.023786658 -0.036467027 0.25525811
0.027424397 -0.037287187 0.25556615
0.03079256 -0.035854153 0.25526673
0.023678971 -0.033872843 0.25570375
0.027684456 -0.033664707 0.25695652
0.03214483 -0.033016555 0.25599995
