# .PCD v0.7 - Point Cloud Data file format
VERSION 0.7
FIELDS x y z
SIZE 4 4 4
TYPE F F F
COUNT 1 1 1
WIDTH 167
HEIGHT 1
VIEWPOINT 0 0 0 1 0 0 0
POINTS 167
DATA ascii
-0.067082494 -0.022085298 0.2173333
-0.06293156 -0.021634502 0.21732177
-0.0573976 -0.021739801 0.21701196
-0.053394843 -0.021997115 0.21823759
-0.067208141 -0.018413901 0.21813649
-0.062373511 -0.018058563 0.21859096
-0.057674997 -0.017783085 0.21827351
-0.054190822 -0.018788911 0.21853332
-0.059776001 -0.014781483 0.21900001
-0.07850194 -0.025506619 0.22400001
-0.05085348 -0.025960946 0.22204354
-0.049393233 -0.026212044 0.22276475
-0.078211375 -0.024925489 0.22400001
-0.051168323 -0.02234593 0.22160974
-0.049625095 -0.023044838 0.22323813
-0.070374615 -0.017740529 0.22050002
-0.067269906 -0.016027981 0.22031111
-0.063455284 -0.015921691 0.22003698
-0.05626376 -0.015562413 0.22000001
-0.052513853 -0.017419022 0.22193809
-0.049881399 -0.01984062 0.22400001
-0.070244916 -0.012909225 0.22350001
-0.067152165 -0.012589923 0.22203606
-0.06260813 -0.012406791 0.22172169
-0.057398003 -0.012552417 0.22158694
-0.053532049 -0.013066518 0.22305264
-0.067445889 -0.0091106435 0.22365001
-0.060233995 -0.0098831607 0.22333334
-0.058593668 -0.0093229357 0.2238
-0.080303513 -0.027511066 0.22683334
-0.077362858 -0.026785811 0.22708338
-0.074119084 -0.026720028 0.22805265
-0.050917521 -0.028203864 0.22700001
-0.047115277 -0.027213845 0.22725658
-0.043264501 -0.027992826 0.22842251
-0.077490523 -0.023380836 0.22850004
-0.074344777 -0.022626659 0.22757144
-0.050252195 -0.02028349 0.22900002
-0.048420679 -0.022975143 0.22804707
-0.050826475 -0.016785633 0.22691672
-0.049960319 -0.019284874 0.22600001
-0.070169523 -0.010443713 0.22500001
-0.069804698 -0.010443713 0.22500001
-0.062872998 -0.010078887 0.22500001
-0.05642774 -0.010078887 0.22500001
-0.051913455 -0.012159617 0.22619051
-0.066930413 -0.0070120683 0.2263132
-0.062799595 -0.007346441 0.22606795
-0.057465188 -0.0071312669 0.22565778
-0.053462137 -0.0073374743 0.22682793
-0.067091458 -0.0030110129 0.22824241
-0.062488973 -0.0027990059 0.22833721
-0.057520054 -0.0027651105 0.22813007
-0.053902268 -0.0035456561 0.22868755
-0.08084961 -0.030860458 0.23357145
-0.041235685 -0.031142995 0.23276922
-0.039358627 -0.030768901 0.23328574
-0.077485412 -0.028672218 0.23075001
-0.041278258 -0.027352553 0.23128787
-0.03931937 -0.026785195 0.23295237
-0.077531762 -0.021049408 0.23027262
-0.050098702 -0.020372067 0.23
-0.046641942 -0.021713356 0.23029493
-0.042496029 -0.022689762 0.23155732
-0.039966825 -0.022117568 0.23400001
-0.0805647 -0.015983621 0.234
-0.078112595 -0.017699435 0.23245096
-0.050333031 -0.017200749 0.23045456
-0.0475858 -0.017483531 0.23181769
-0.043070447 -0.018451229 0.23331645
-0.080564693 -0.014655653 0.23400001
-0.07785555 -0.012817844 0.23333336
-0.074783675 -0.013320639 0.23225001
-0.050848357 -0.011970568 0.23131478
-0.048266146 -0.012917846 0.23336467
-0.077943996 -0.0091603966 0.2332
-0.05161139 -0.007431136 0.23213047
-0.066995546 -0.00060687598 0.23020001
-0.063550949 -0.00060659176 0.23000002
-0.058257788 -0.00074412709 0.23005265
-0.052515239 -0.0021922558 0.23142096
-0.081898637 -0.035120189 0.23900001
-0.08086703 -0.032394703 0.23742422
-0.079632156 -0.030545384 0.23785715
-0.040997099 -0.033421207 0.23716667
-0.039298918 -0.032550246 0.23700003
-0.078624018 -0.02974177 0.23733334
-0.040137623 -0.028626271 0.23500001
-0.04021154 -0.021856518 0.236
-0.045218166 -0.015607379 0.23500001
-0.041560225 -0.016765337 0.23555768
-0.0770339 -0.011289869 0.23524332
-0.07481233 -0.010145796 0.23500001
-0.046435002 -0.011793689 0.23638238
-0.042752743 -0.012686202 0.23754185
-0.077869676 -0.0077898232 0.23853339
-0.074600875 -0.0084892362 0.23675002
-0.050534666 -0.0064542447 0.23577784
-0.047441538 -0.0075340942 0.23767257
-0.043816697 -0.0085746199 0.23899998
-0.078076176 -0.0044326838 0.23814288
-0.074535631 -0.0048931199 0.23900001
-0.04733732 -0.040965192 0.24400012
-0.044274691 -0.040885128 0.244
-0.081120387 -0.036957365 0.24103847
-0.079289176 -0.037332341 0.24281257
-0.047856592 -0.039415624 0.24399999
-0.080911718 -0.033937544 0.24000001
-0.079546407 -0.032908663 0.24107316
-0.040771645 -0.015094071 0.24100001
-0.040931001 -0.011725662 0.24108335
-0.076804556 -0.0062776203 0.24009089
-0.042392783 -0.0071180444 0.24154872
-0.076213434 -0.040606458 0.24554548
-0.072822206 -0.040892567 0.24750003
-0.050913412 -0.041685618 0.24620001
-0.04939346 -0.041960694 0.245
-0.043911334 -0.040848378 0.245
-0.077047445 -0.037194982 0.24608418
-0.073462076 -0.037754405 0.24784206
-0.050670516 -0.037314326 0.24694739
-0.047403708 -0.037376102 0.24618009
-0.044269901 -0.037781477 0.2468929
-0.080359437 -0.031859949 0.24711111
-0.077834502 -0.03255314 0.2477756
-0.074559584 -0.03415072 0.24855556
-0.050398409 -0.034072548 0.24733335
-0.048098203 -0.034292597 0.24700001
-0.077576309 -0.029292466 0.24875002
-0.071517646 -0.045381974 0.25300002
-0.067213841 -0.045935761 0.25400004
-0.064592987 -0.046385046 0.25400001
-0.055669606 -0.04652233 0.25400001
-0.054914549 -0.046385046 0.25400001
-0.071080722 -0.042388584 0.2525501
-0.068624765 -0.043206722 0.25392109
-0.053679004 -0.044325802 0.25400001
-0.071154818 -0.037516728 0.25150007
-0.069260597 -0.039087452 0.25375
-0.044321049 -0.039168771 0.25
-0.075399354 -0.031480584 0.25031251
-0.072675444 -0.03252748 0.25192732
-0.075075373 -0.029228171 0.25050002
-0.072971806 -0.028891796 0.25250003
-0.065329671 -0.045878552 0.25500005
-0.06210386 -0.046321817 0.25500008
-0.057749394 -0.046261389 0.25500008
-0.054472007 -0.045729131 0.25540003
-0.066796221 -0.042111315 0.25543052
-0.062429842 -0.042519733 0.25594684
-0.057557549 -0.042659156 0.25641656
-0.054719519 -0.043189552 0.25528574
-0.070214503 -0.036261596 0.25522226
-0.067701295 -0.037556563 0.25718883
-0.063001752 -0.038302749 0.25842625
-0.05787209 -0.038593262 0.25849998
-0.054942671 -0.038748838 0.25800002
-0.070428461 -0.032404944 0.25620517
-0.069653012 -0.032401793 0.25780001
-0.062294878 -0.033439603 0.259
-0.070663787 -0.029586602 0.25628576
-0.067911029 -0.029963823 0.25800002
-0.066978171 -0.035417166 0.26000002
-0.061974678 -0.036119618 0.26022741
-0.057743635 -0.036901575 0.26072228
-0.067618318 -0.032998424 0.26009539
-0.06310267 -0.034143258 0.26060873
