# .PCD v0.7 - Point Cloud Data file format
VERSION 0.7
FIELDS x y z
SIZE 4 4 4
TYPE F F F
COUNT 1 1 1
WIDTH 176
HEIGHT 1
VIEWPOINT 0 0 0 1 0 0 0
POINTS 176
DATA ascii
-0.0055475258 -0.025789505 0.21900004
-0.0023749066 -0.025892746 0.21893749
0.0029014891 -0.025487635 0.21877417
0.0076037683 -0.025656352 0.21899997
-0.005209337 -0.024605848 0.21900003
-0.00215492 -0.024039995 0.21899995
0.0027534573 -0.024250748 0.21899997
0.0068370798 -0.024256133 0.21900003
-0.017846731 -0.027177358 0.22400001
-0.0075050308 -0.026260423 0.2204375
0.0097966371 -0.025764579 0.22000001
0.011434388 -0.026229709 0.22200005
-0.0068130097 -0.022487869 0.2211556
-0.0025225643 -0.02170209 0.22066256
0.0026466553 -0.021779405 0.22061703
0.0077051516 -0.021989588 0.22110085
0.011117885 -0.022929836 0.22318175
-0.006341618 -0.018576685 0.2235263
-0.0021397728 -0.017659482 0.22277205
0.0026366643 -0.017428434 0.22291331
0.00727088 -0.017785763 0.22329217
0.010203059 -0.019114211 0.22400001
-0.00075794401 -0.014755755 0.22400001
0.0017974614 -0.014755756 0.22400001
-0.019061983 -0.035135973 0.22900002
-0.02144457 -0.031979822 0.22900003
-0.018253833 -0.031029701 0.22900005
0.013691807 -0.030767439 0.22690006
0.017496418 -0.031477008 0.22876926
0.020668408 -0.032165479 0.22900005
-0.020595653 -0.027398026 0.22830001
-0.018890738 -0.027641064 0.22793187
-0.010927537 -0.028634705 0.22889479
-0.0095995516 -0.029148765 0.22766668
0.013279572 -0.028002879 0.22658184
0.01630247 -0.029189996 0.22878131
-0.018319357 -0.023625299 0.22900002
0.01251329 -0.021865359 0.22597143
-0.01772381 -0.018710582 0.22850001
-0.0072698253 -0.016518749 0.22582977
-0.0041447114 -0.015549542 0.22541666
0.0088083865 -0.015853303 0.22535995
0.011382262 -0.017413298 0.22637501
-0.0067035765 -0.01256787 0.22742645
-0.0025512315 -0.012340684 0.22632781
0.0026039972 -0.012324181 0.22634915
0.0075103785 -0.012478711 0.22688612
0.010743155 -0.012981471 0.22775008
-0.0058494611 -0.0091750743 0.22900003
-0.0023455105 -0.0087348567 0.22886212
0.0024966663 -0.008658641 0.2286429
0.0074209725 -0.0088696713 0.2288824
0.010271672 -0.0095154429 0.22900002
-0.018830126 -0.035612568 0.23071432
-0.020583613 -0.032240964 0.23044999
-0.017406171 -0.032210745 0.23038973
-0.013020487 -0.030845383 0.23011999
0.018261496 -0.032248627 0.23025002
0.022248173 -0.031734549 0.23041169
-0.020885577 -0.025717445 0.23
-0.016496191 -0.027463961 0.23093326
-0.013249213 -0.027372459 0.23086666
0.014631901 -0.026072619 0.23000002
0.017797386 -0.027139317 0.23094626
0.021869471 -0.027642855 0.23178409
-0.020499365 -0.023563875 0.23091668
-0.017863877 -0.022999495 0.23229878
-0.012457187 -0.023278536 0.23259999
0.014242179 -0.022482755 0.23094732
0.017131232 -0.0232745 0.23327845
0.021088067 -0.024362465 0.234
-0.020305838 -0.019531759 0.23333335
-0.018532779 -0.01846949 0.23114999
-0.010645196 -0.018997643 0.23375002
0.01349674 -0.017674025 0.23235555
0.015238686 -0.019682959 0.23400001
-0.0085457442 -0.011887064 0.23022223
0.01218584 -0.01170081 0.23336591
-0.00698668 -0.007038929 0.23110163
-0.0027053503 -0.0061918492 0.23040311
0.0024699983 -0.0060990667 0.23049995
0.0074804057 -0.0064082094 0.23063223
0.011764424 -0.0071101417 0.23324643
0.022849657 -0.025201691 0.23540001
-0.016226258 -0.021152424 0.23548394
-0.013400248 -0.02126815 0.23544124
0.018258225 -0.021168886 0.23541671
0.022067752 -0.02210563 0.23641564
-0.020382619 -0.017044554 0.23609097
-0.016918806 -0.017304182 0.23794457
-0.013045268 -0.017775731 0.23743057
0.014502582 -0.016511314 0.23507699
0.017482838 -0.017637018 0.23676202
0.021415152 -0.017970681 0.23842312
-0.020197049 -0.013362559 0.23800001
-0.018580703 -0.013093182 0.23808165
-0.011248944 -0.01421149 0.2385
0.014031941 -0.012570571 0.23650981
0.016513782 -0.013080641 0.23860383
0.020214617 -0.014968809 0.23900001
0.013844319 -0.0076594739 0.23652501
0.015564298 -0.0092527922 0.23900001
-0.020523258 -0.040633939 0.243
-0.018794969 -0.040917289 0.24233335
-0.020964697 -0.03889985 0.24036364
-0.019097935 -0.039035585 0.2402
-0.015696997 -0.01503144 0.24000001
-0.013284278 -0.015342759 0.24000001
0.022621553 -0.017010244 0.24012502
-0.020430416 -0.010978984 0.24075001
-0.016618323 -0.012270094 0.24107574
-0.013205823 -0.012387735 0.24145067
0.018629232 -0.012260265 0.24043095
0.021340366 -0.012429716 0.24185419
-0.020340029 -0.0090076244 0.24200003
-0.010633257 -0.045270082 0.24900001
0.01250499 -0.045309294 0.24790911
0.015084034 -0.04510672 0.24700001
-0.020923495 -0.041828275 0.245
-0.017102545 -0.041966766 0.24630557
-0.012914835 -0.042735711 0.24834558
0.012979594 -0.042644657 0.24801369
0.017473634 -0.042581879 0.24708249
0.020453192 -0.042470936 0.24800003
-0.017346699 -0.037909374 0.24727058
-0.014401508 -0.03955042 0.24900004
0.014029376 -0.03915906 0.24890004
0.017453436 -0.038425718 0.2488436
0.020566272 -0.038523138 0.24884619
-0.010270598 -0.045654576 0.25
-0.0093349181 -0.045842059 0.25214291
-0.010720422 -0.041688867 0.25021741
-0.0095787719 -0.042790987 0.25234619
0.010938458 -0.041969631 0.25045455
0.021294046 -0.04172289 0.25320002
-0.015692322 -0.036685929 0.25
-0.012631757 -0.037657563 0.25104401
-0.0097578121 -0.037547193 0.25331581
0.012688004 -0.037910126 0.25066674
0.021347677 -0.038155366 0.25
-0.01226999 -0.034697086 0.25156251
-0.0099441577 -0.034987465 0.252
0.023871653 -0.015697567 0.25157145
-0.0067232698 -0.050605621 0.25766668
-0.0024322779 -0.050683323 0.257
0.0025907245 -0.050675943 0.25696295
0.0069582267 -0.050425734 0.25609529
-0.0070506842 -0.047549594 0.25795126
-0.0023564114 -0.047461968 0.2580761
0.0025583766 -0.047324859 0.25782612
0.0073381965 -0.047349807 0.25715116
0.010350353 -0.048384327 0.25585717
0.022067569 -0.045089919 0.25600001
-0.0076839845 -0.042666636 0.25795585
-0.0024321175 -0.044625696 0.25900006
0.0026722518 -0.044358447 0.259
0.0078193322 -0.044439502 0.25850004
0.022423208 -0.042696599 0.25572419
-0.008533204 -0.037968379 0.25716221
0.021774633 -0.039952148 0.25500003
-0.0058018425 -0.04166634 0.26031825
-0.0024797933 -0.042147871 0.26074702
0.0026509464 -0.042074218 0.26078939
0.0073422375 -0.042292442 0.26094362
-0.0067143142 -0.037474953 0.26173592
-0.0025743204 -0.037760314 0.26311135
0.0025042689 -0.03795144 0.26348695
0.0071983864 -0.037940495 0.26336625
-0.0063367025 -0.034297507 0.26170003
-0.0025377921 -0.034122493 0.26367441
0.00028388164 -0.034941282 0.264
0.0063623744 -0.03477006 0.264
0.0028300104 -0.035404164 0.26500005
0.0067302212 -0.035718165 0.26500002
0.0024333789 -0.034085359 0.26499999
0.005613042 -0.034386143 0.26500002
