# .PCD v0.7 - Point Cloud Data file format
VERSION 0.7
FIELDS x y z
SIZE 4 4 4
TYPE F F F
COUNT 1 1 1
WIDTH 123
HEIGHT 1
VIEWPOINT 0 0 0 1 0 0 0
POINTS 123
DATA ascii
-0.055442099 -0.080848388 0.30850002
-0.076907359 -0.076964222 0.30777141
-0.074095398 -0.077260949 0.30840003
-0.06210367 -0.077503383 0.30784905
-0.057688568 -0.078175679 0.30817309
-0.054279789 -0.079476342 0.30900002
-0.076858267 -0.073547803 0.30843747
-0.074621536 -0.074566267 0.30900002
-0.061524864 -0.074742422 0.30890003
-0.059791099 -0.074967086 0.30900002
-0.083415121 -0.080253229 0.31400001
-0.052247014 -0.081344113 0.31239289
-0.082220703 -0.07725431 0.31203333
-0.07942038 -0.075377248 0.31
-0.071639143 -0.077100709 0.31002513
-0.067418009 -0.077398688 0.31068429
-0.064508446 -0.075963676 0.31
-0.05647406 -0.076252893 0.31015381
-0.052932255 -0.077627614 0.3119649
-0.077374712 -0.071478479 0.31041935
-0.072784819 -0.072492585 0.31143278
-0.067773126 -0.072796836 0.31251523
-0.062517956 -0.072092295 0.31090328
-0.057371788 -0.072431423 0.31148097
-0.053772043 -0.073425874 0.31296298
-0.076882526 -0.06778124 0.31217781
-0.073187485 -0.069023296 0.31376198
-0.067959227 -0.069343194 0.31400001
-0.061905134 -0.068037726 0.31297505
-0.058209624 -0.068447769 0.31348154
-0.077899486 -0.064979181 0.31400001
-0.050391968 -0.082198299 0.31540003
-0.047745466 -0.08228334 0.31734785
-0.050709549 -0.077295087 0.31528574
-0.048361219 -0.078199401 0.31737509
-0.082895994 -0.071979769 0.31590003
-0.071969844 -0.071680024 0.31500003
-0.068102688 -0.070804432 0.31500003
-0.051751498 -0.07234896 0.31645283
-0.049436938 -0.073377371 0.31841668
-0.085001998 -0.065755248 0.31900001
-0.082371458 -0.067000985 0.31745714
-0.076453216 -0.066228651 0.31510004
-0.072331786 -0.06673561 0.31563261
-0.067736968 -0.067335226 0.3161476
-0.063199446 -0.066144094 0.31521055
-0.056901276 -0.066781014 0.31547615
-0.053561844 -0.068359792 0.31700003
-0.081567705 -0.063636623 0.31857145
-0.077400967 -0.062510416 0.3169454
-0.072864354 -0.062734485 0.31764799
-0.067790598 -0.063640542 0.31848392
-0.062450681 -0.06272696 0.31629312
-0.057869222 -0.062808551 0.31709525
-0.077064484 -0.057813395 0.31816277
-0.074175306 -0.059072323 0.31887501
-0.06133901 -0.058824897 0.3182632
-0.059369035 -0.059324887 0.31850001
-0.077081934 -0.05443361 0.31833336
-0.050323248 -0.070221439 0.32050002
-0.049286451 -0.071191728 0.32200006
-0.08526846 -0.065183081 0.32000002
-0.084230736 -0.065183081 0.32000002
-0.055174351 -0.065442517 0.32000002
-0.051920619 -0.066925667 0.32183334
-0.049353689 -0.068936065 0.32300001
-0.085168108 -0.062462907 0.32242858
-0.082876794 -0.061651375 0.32147828
-0.071036279 -0.060631037 0.32016671
-0.06774123 -0.061009504 0.32054552
-0.064648315 -0.060638841 0.32066667
-0.055957399 -0.061496496 0.32057899
-0.053437453 -0.062808447 0.32291675
-0.082746953 -0.059457149 0.32366669
-0.075733423 -0.056140695 0.32042858
-0.072442226 -0.057536509 0.32111862
-0.067825995 -0.057535127 0.32200027
-0.063027434 -0.056933202 0.32082054
-0.057598986 -0.057356562 0.32112059
-0.054349951 -0.058579691 0.32333332
-0.085367538 -0.087346144 0.32655555
-0.083248712 -0.087406658 0.32689664
-0.047477543 -0.071192734 0.32533336
-0.048457742 -0.067508362 0.32608572
-0.051346209 -0.061820917 0.32515785
-0.049015503 -0.062676243 0.32648578
-0.085217014 -0.059527937 0.32525003
-0.083558269 -0.057908487 0.32578948
-0.049202591 -0.059099033 0.32775003
-0.047159575 -0.093345873 0.33266667
-0.047411773 -0.062030684 0.33131996
-0.081227459 -0.096766666 0.33876926
-0.083268106 -0.092365824 0.3387273
-0.047035031 -0.092275418 0.33550003
-0.083185554 -0.08952859 0.33900002
-0.050057158 -0.080906734 0.33800003
-0.048505884 -0.081580386 0.33833337
-0.050057158 -0.079262584 0.33800003
-0.048961058 -0.079262584 0.33800003
-0.076920442 -0.10079338 0.34292856
-0.072776675 -0.10091626 0.34304997
-0.069503769 -0.10016389 0.34200001
-0.060353927 -0.10044116 0.34200001
-0.057788011 -0.1004188 0.34218183
-0.081483044 -0.09634389 0.34
-0.077638559 -0.097435676 0.34278575
-0.072641075 -0.097329125 0.34367278
-0.067543916 -0.097372845 0.34144673
-0.06257502 -0.097454801 0.34165558
-0.05771729 -0.097349986 0.34315106
-0.054531299 -0.098361649 0.34200001
-0.0815778 -0.092423744 0.34026322
-0.077885836 -0.092636459 0.34292156
-0.073535793 -0.093312606 0.34400004
-0.067468911 -0.093163095 0.34300002
-0.06274879 -0.093470097 0.34287509
-0.058619123 -0.093709335 0.34375006
-0.081430614 -0.089650087 0.34040004
-0.079529464 -0.089642107 0.34100002
-0.04718326 -0.081774145 0.34038463
-0.047804303 -0.07971102 0.34050003
-0.075334527 -0.091905653 0.34500003
-0.07270062 -0.092660069 0.34503239
