# .PCD v0.7 - Point Cloud Data file format
VERSION 0.7
FIELDS x y z
SIZE 4 4 4
TYPE F F F
COUNT 1 1 1
WIDTH 232
HEIGHT 1
VIEWPOINT 0 0 0 1 0 0 0
POINTS 232
DATA ascii
-0.0012264963 0.013050447 0.15771426
0.0027081843 0.013399052 0.1568874
0.0075814351 0.013437539 0.1560597
0.012539919 0.013470325 0.15649039
0.016570989 0.01319368 0.15756565
-0.00083369995 0.016746663 0.1584717
0.0023320443 0.016343359 0.15873347
0.0074971914 0.017353196 0.15807232
0.012276521 0.017004801 0.1582284
0.015848204 0.016556196 0.15849997
0.0066162385 0.020559993 0.15900002
-0.0032013832 0.0095321061 0.16352634
0.018647734 0.0087755118 0.16329315
0.020120187 0.0080768429 0.164
-0.0029788923 0.01147378 0.16197298
0.018601932 0.012091708 0.16079588
0.020052699 0.013432633 0.16155557
-0.0012645575 0.018734274 0.1603871
0.0026282475 0.018694775 0.16063365
0.0077439249 0.019552464 0.16027276
0.013156885 0.019182459 0.16027118
0.017847015 0.017953049 0.16145775
-0.00077950122 0.022335095 0.16149212
0.0024593479 0.022425132 0.16237691
0.0076238182 0.022738388 0.1614541
0.01246773 0.022559375 0.16178845
0.016784977 0.022400465 0.16263911
-0.00049171934 0.026830126 0.16358069
0.0018049568 0.025917221 0.16358827
0.0078202616 0.026342992 0.16327466
0.012116755 0.026235081 0.16349997
0.016175739 0.025834236 0.16400002
0.0276723 0.0045449655 0.16773078
-0.012361735 0.0078687333 0.16789022
-0.0075104455 0.0081473654 0.16652034
-0.0040130173 0.0085478909 0.16563332
0.019477725 0.0076353541 0.16533335
0.022751343 0.0077103302 0.16604836
0.027062133 0.0074133715 0.16796657
0.030050458 0.0069529633 0.16900001
-0.011552479 0.010946631 0.16883336
-0.0069097197 0.011851061 0.16784203
-0.0046564988 0.012518566 0.16638462
0.019975331 0.010533945 0.16500001
0.022446269 0.011886332 0.16777538
0.026224257 0.010708121 0.16899998
-0.0041012205 0.017312085 0.1682
0.020854514 0.017188933 0.16813794
-0.0026853858 0.02240013 0.16618751
0.0022174127 0.024345659 0.16500001
0.018637354 0.022643493 0.16531815
0.020292317 0.020347867 0.1665
-0.0016493616 0.027715338 0.16666666
0.0026596051 0.027977379 0.16590856
0.0073622018 0.028689347 0.16559553
0.012827107 0.028623315 0.16560793
0.017442094 0.02776177 0.16625202
0.020066116 0.026252475 0.16800001
-0.00065534748 0.032249819 0.16753489
0.0018383737 0.032219827 0.16786662
0.0076311831 0.032320417 0.16772912
0.012586531 0.032366108 0.16774851
0.016755197 0.031935532 0.16828129
-0.015733862 0.0046018497 0.17336366
-0.013863442 0.0047060424 0.17306669
0.029319523 0.0031485874 0.17109095
0.030352324 0.0032488997 0.17227274
-0.015471153 0.0055622626 0.1705
-0.013348756 0.0059993505 0.17032357
0.029426184 0.0081815589 0.17073335
0.030394729 0.0089384969 0.172125
-0.01272413 0.01290025 0.17120154
-0.0083570275 0.013711301 0.17035089
0.023655452 0.014190917 0.17008336
0.027400129 0.012774233 0.17127776
0.030375263 0.010826392 0.17400001
-0.015112719 0.016719621 0.17366669
-0.012455451 0.017290704 0.17323078
-0.0074484637 0.017526042 0.1718996
-0.0047411425 0.018559372 0.17112501
0.02318266 0.017499045 0.17131574
0.026727993 0.017044907 0.17293224
-0.01067499 0.020136757 0.17400001
-0.0063083479 0.021761119 0.17357804
-0.0042859009 0.022832779 0.17223811
0.019516792 0.02486755 0.17033336
0.021749971 0.021699028 0.17331032
0.02529688 0.020136757 0.17400001
-0.0035093308 0.027263079 0.17180003
0.0026636214 0.029872762 0.17
0.019490181 0.028222514 0.17052177
0.020568799 0.02725732 0.17211111
-0.0021440778 0.03245011 0.17095654
0.029006885 -0.0006936476 0.17772222
0.030364202 -0.00042862268 0.1777143
-0.015898399 0.0025349844 0.17720459
-0.013658234 0.0027021591 0.17738162
0.029158425 0.00098602276 0.17664288
0.030300505 0.00059839425 0.17685716
-0.012367255 0.0052433293 0.17600001
-0.013432003 0.014577411 0.17500001
0.029957 0.01328685 0.17557146
0.030434277 0.013274965 0.17621429
-0.012955852 0.017776882 0.17527783
0.023455987 0.019968731 0.17500001
0.028416581 0.018452339 0.17574424
0.030229574 0.016959701 0.17830001
-0.015437215 0.021237204 0.1785
-0.012326946 0.022312082 0.17659542
-0.008209059 0.023078945 0.17569414
-0.0049193888 0.024792545 0.17500001
0.023358157 0.022794252 0.17554377
0.027154516 0.022600451 0.17668158
-0.012036469 0.026329322 0.17834251
-0.0073047541 0.026912477 0.1773607
-0.0047167139 0.027626028 0.17609091
0.022964153 0.027146863 0.1775631
0.026816634 0.026133725 0.17866667
0.024208805 -0.0063567366 0.18400002
0.026341565 -0.0059919008 0.18400002
-0.015583194 -0.0011228872 0.18086667
-0.013563149 -0.0025350358 0.18185179
0.024662295 -0.004960475 0.18400002
0.027900362 -0.0033674715 0.18302564
0.030134885 -0.002299316 0.18191668
-0.015785834 0.00072920264 0.18000001
-0.012988715 0.0018360565 0.18194598
0.028404722 0.00052270602 0.18200003
-0.012675638 0.0054377858 0.1825
-0.0019651577 0.0092109973 0.18400002
0.00094372395 0.00936017 0.18400002
0.0030169869 0.011911275 0.18158334
0.03046277 0.019991411 0.18300001
-0.012852632 0.024129158 0.18000002
0.029671518 0.024114564 0.18000001
0.030377939 0.022348417 0.18203232
-0.0021462478 -0.011428654 0.18900001
-0.0059335199 -0.005747573 0.18577275
-0.0037533562 -0.0059692012 0.18760417
0.017915921 -0.0066249082 0.18715626
0.021714803 -0.006247656 0.18503578
0.028425038 -0.0055215354 0.18616667
-0.011362993 -0.0022089137 0.18570772
-0.0076543819 -0.0026152181 0.18593641
-0.003431347 -0.0027887416 0.18787254
0.018766107 -0.0029459675 0.18781693
0.022515416 -0.0026613292 0.18603033
0.026424469 -0.0020314525 0.18572064
-0.011367003 0.0024208068 0.18765306
-0.0076644318 0.0019142422 0.18817717
-0.0022765826 0.00080656743 0.18819232
0.019573348 0.00045913307 0.188875
0.022656856 0.0015274343 0.18853559
0.026688181 0.0021198953 0.18805824
-0.012047837 0.0053258357 0.18788891
-0.0060806582 0.007372106 0.18744448
-0.0023442127 0.0088700121 0.18668081
0.00049890054 0.0091110729 0.185
-0.0052848291 0.01047815 0.18800001
-0.0014245539 0.010886642 0.18769567
0.00073628948 0.01110337 0.18825002
0.0052597253 0.013445199 0.18900001
0.012461396 0.012679063 0.18900001
-0.001412035 -0.011117951 0.19260004
0.0015134569 -0.011765949 0.19400007
0.01295311 -0.0117453 0.19400018
0.015716482 -0.010766345 0.19400001
-0.0025491966 -0.0079883756 0.19138676
0.00020860998 -0.0099484846 0.19400001
0.014572274 -0.0089050466 0.19382353
0.016009407 -0.0084290085 0.19217247
-0.0017644305 -0.0020081389 0.19088572
0.01697186 -0.0019775345 0.19051997
-0.0063015567 0.0042203064 0.19030306
-0.0031057261 0.002781553 0.19175011
0.017961066 0.0024124803 0.19247335
0.02224615 0.0039821342 0.19085966
0.025261119 0.0045308024 0.19000003
-0.011179081 0.0057682381 0.19000004
-0.0072449846 0.0059173913 0.19043653
-0.0031859714 0.0067157606 0.19315588
0.0028559032 0.0097491834 0.193
0.013114979 0.0097028408 0.19319999
0.018259265 0.0060222233 0.19379316
0.021726958 0.0053353682 0.19178261
-0.0054625208 0.01190487 0.19271429
-0.0026194407 0.011601891 0.1911905
0.0030017318 0.011119397 0.19124527
0.0071159503 0.01263013 0.19118579
0.012736036 0.011566211 0.19160613
0.0028333429 -0.011544245 0.19504683
0.0074618794 -0.011552664 0.1949999
0.010819373 -0.01133476 0.19500004
0.016089085 -0.011299627 0.19500002
-0.00049362105 -0.0073158792 0.19541672
0.002555538 -0.0076802406 0.19631994
0.0073601971 -0.0079230862 0.19674997
0.012367686 -0.0076869484 0.19608313
0.015147558 -0.0058401413 0.19600001
-0.00050404028 -0.0029378347 0.1980588
0.0027934371 -0.0037209322 0.19854841
0.0055113561 -0.0037979323 0.19866669
0.013568073 -0.0035885647 0.19784088
0.015257309 -0.0026402131 0.1971429
-0.00059387193 0.0024744282 0.19728573
0.015907068 0.0033942321 0.19725001
-0.0011774322 0.0069265757 0.19600005
0.0026140697 0.0085839909 0.19698526
0.0065398416 0.0091643529 0.19725642
0.013740712 0.0086233513 0.19680002
0.016231112 0.0071184556 0.19623405
0.0080245119 0.011304498 0.19711539
0.010484903 0.011630826 0.19725001
0.0075896434 -0.0061523342 0.200258
0.010712935 -0.0057772715 0.20075001
-0.00010922818 -0.00085176097 0.20000002
0.0021206916 -0.0016542955 0.20082434
0.0076313005 -0.0024613524 0.20144178
0.011850525 -0.0021707551 0.20196666
0.015132403 -0.00068961596 0.2
-0.00017088272 0.0026906994 0.20100001
0.0025343024 0.002193151 0.20268439
0.0075302133 0.0023444605 0.20290935
0.012499658 0.0023569337 0.20266405
0.015232775 0.0030531229 0.20071429
0.0024908201 0.0063467012 0.20213923
0.0077068517 0.0069973096 0.20239982
0.01192285 0.0069400892 0.20213322
0.01518915 0.0056543555 0.20074999
0.0080906777 0.010915333 0.20000002
0.0024934139 0.0037917446 0.2055455
0.002214822 0.0051100953 0.20500001
