# .PCD v0.7 - Point Cloud Data file format
VERSION 0.7
FIELDS x y z
SIZE 4 4 4
TYPE F F F
COUNT 1 1 1
WIDTH 121
HEIGHT 1
VIEWPOINT 0 0 0 1 0 0 0
POINTS 121
DATA ascii
-0.075825401 -0.077171855 0.30860004
-0.074297681 -0.080495022 0.31100002
-0.065472938 -0.080495022 0.31100002
-0.061970171 -0.081376381 0.31273532
-0.059613034 -0.083435327 0.31400001
-0.075961262 -0.076140068 0.31093335
-0.072712749 -0.077567063 0.31137154
-0.067531019 -0.077441178 0.31159222
-0.063022889 -0.077825531 0.31306449
-0.076584689 -0.072836652 0.31313896
-0.072744153 -0.072648019 0.31327274
-0.068177015 -0.073397614 0.31300011
-0.064577103 -0.074143611 0.31400001
-0.056874152 -0.085385047 0.31680003
-0.057800177 -0.082549617 0.31639621
-0.061378963 -0.076086573 0.31506255
-0.058044784 -0.077665158 0.316625
-0.07678555 -0.070804432 0.31500003
-0.071065068 -0.070906579 0.31500003
-0.066912301 -0.071623236 0.31547362
-0.062532581 -0.072462477 0.31646872
-0.058647897 -0.072810248 0.31790701
-0.076323725 -0.06776385 0.31648001
-0.072640575 -0.067579567 0.31612685
-0.067779332 -0.067643985 0.31759426
-0.063161835 -0.068554491 0.31848726
-0.059657115 -0.069634572 0.31900001
-0.075864047 -0.064806983 0.31900001
-0.072640195 -0.064331084 0.31881827
-0.068514898 -0.064785421 0.31900001
-0.085721098 -0.086834252 0.32366666
-0.083341375 -0.086235106 0.32305881
-0.055174351 -0.085937642 0.32000002
-0.05240551 -0.086416468 0.32086843
-0.048200641 -0.086958364 0.32288238
-0.085283622 -0.084034882 0.324
-0.084122442 -0.083973065 0.32357141
-0.055704713 -0.082737409 0.32006672
-0.052654773 -0.082475744 0.32164532
-0.049218196 -0.082600556 0.32275003
-0.055820178 -0.077193134 0.32089478
-0.053419039 -0.078179114 0.32259101
-0.049930599 -0.079934835 0.32300001
-0.056821082 -0.072291739 0.32174996
-0.054813329 -0.074403472 0.324
-0.076966636 -0.065183081 0.32000002
-0.065681346 -0.065312795 0.32000002
-0.061862815 -0.066402659 0.32042104
-0.058886323 -0.067777559 0.32221621
-0.076346926 -0.062115796 0.32121435
-0.072321616 -0.06170132 0.32091308
-0.06752301 -0.062267311 0.32089469
-0.062746465 -0.062415939 0.32201591
-0.059454519 -0.062815443 0.32352939
-0.076102294 -0.057805013 0.32312497
-0.07241302 -0.058151431 0.32335559
-0.067707337 -0.058303192 0.32357898
-0.062688462 -0.058533307 0.32376927
-0.059541479 -0.059693679 0.324
-0.087687671 -0.085897125 0.32499999
-0.046419226 -0.086621702 0.32500002
-0.086993255 -0.082243532 0.32659382
-0.048694711 -0.080987886 0.32583338
-0.086451791 -0.079465851 0.32785717
-0.051943894 -0.076731771 0.32664108
-0.04847832 -0.077717215 0.32797837
-0.055886962 -0.07132569 0.32660002
-0.053291105 -0.073210068 0.32770592
-0.049257733 -0.074484758 0.32900003
-0.056698296 -0.067507498 0.32717654
-0.057849925 -0.062848724 0.32666668
-0.059271276 -0.05821972 0.3258889
-0.086851068 -0.075163953 0.33200002
-0.047088783 -0.075424597 0.33000001
-0.086893402 -0.072265841 0.33232427
-0.084697783 -0.070319057 0.33200002
-0.051281784 -0.071699508 0.33069694
-0.04847293 -0.072751358 0.33171424
-0.086510971 -0.067720495 0.3335588
-0.084482096 -0.067737676 0.33327273
-0.055467356 -0.06601508 0.33040002
-0.052515175 -0.067626767 0.33191669
-0.049389906 -0.069554448 0.33350003
-0.083583318 -0.064243898 0.33400002
-0.056223791 -0.062122867 0.33223334
-0.05351964 -0.063591838 0.33304554
-0.055152301 -0.096811742 0.33900002
-0.054327793 -0.097086579 0.33900002
-0.048526492 -0.070411287 0.33500001
-0.087907463 -0.065522611 0.33500001
-0.050491087 -0.066471569 0.33522224
-0.048245978 -0.067580767 0.3361516
-0.086577453 -0.062836491 0.33590633
-0.084527388 -0.06286113 0.33560002
-0.07761126 -0.10052451 0.3429167
-0.085904978 -0.095947266 0.34027269
-0.082083188 -0.097329222 0.34109789
-0.0778611 -0.097396359 0.34309804
-0.051915348 -0.09721218 0.34000003
-0.049526416 -0.097372971 0.34
-0.085836589 -0.093914866 0.33999997
-0.082120478 -0.092861921 0.34120399
-0.078999855 -0.093039505 0.34374997
-0.070360474 -0.10504346 0.34900001
-0.067908309 -0.10504346 0.34900004
-0.064418674 -0.10504346 0.34900001
-0.075464062 -0.10109161 0.34516668
-0.072497509 -0.10216746 0.34783325
-0.067902423 -0.10297444 0.34900001
-0.063158289 -0.10283136 0.34900001
-0.075337656 -0.096986569 0.34510002
-0.073823005 -0.098001756 0.34755555
-0.076714352 -0.092831783 0.34580651
-0.074497335 -0.094439074 0.34850001
-0.07112959 -0.10023688 0.35000002
-0.067591019 -0.10083777 0.34999996
-0.063795649 -0.10084803 0.34999999
-0.071833618 -0.09713839 0.35058057
-0.068021111 -0.098283805 0.35067746
-0.063699149 -0.098612867 0.35005552
-0.073349185 -0.094741926 0.3506667
