# .PCD v0.7 - Point Cloud Data file format
VERSION 0.7
FIELDS x y z
SIZE 4 4 4
TYPE F F F
COUNT 1 1 1
WIDTH 188
HEIGHT 1
VIEWPOINT 0 0 0 1 0 0 0
POINTS 188
DATA ascii
-0.05161367 0.024018001 0.133
-0.050393917 0.025893329 0.134
-0.047043946 0.026884882 0.13400008
-0.044505786 0.026624819 0.13400003
-0.053347554 0.024775214 0.13528572
-0.044075776 0.024660083 0.13750002
-0.055672158 0.028195331 0.13764
-0.052559111 0.027382717 0.135536
-0.047848027 0.028719792 0.13518193
-0.043939207 0.027335271 0.13665938
-0.05578265 0.030905996 0.13881251
-0.052303232 0.031725585 0.13796382
-0.047397174 0.032293227 0.13719624
-0.044265561 0.031755708 0.13818613
-0.050411131 0.035168566 0.13900003
-0.047460776 0.035414331 0.13899997
-0.044926845 0.035018306 0.13900001
-0.045800682 0.024719257 0.141
-0.042047359 0.023466919 0.14156501
-0.03745183 0.023034489 0.14337531
-0.034401495 0.022332314 0.14400004
-0.059735041 0.026062826 0.14400001
-0.042174172 0.027220689 0.14186309
-0.037603639 0.025315104 0.14400004
-0.056356054 0.033144124 0.14054286
-0.053430431 0.034208369 0.14029783
-0.043015007 0.032574736 0.14164487
-0.055874418 0.037021257 0.14275004
-0.052587848 0.03752166 0.1419456
-0.047170259 0.038053285 0.1413388
-0.043662887 0.037345782 0.14261831
-0.0518898 0.040798277 0.14398186
-0.046975922 0.041439034 0.14331193
-0.044221617 0.04072139 0.14373533
-0.035112806 0.018693121 0.149
-0.033818968 0.019285087 0.14795235
-0.061011214 0.023625841 0.14684208
-0.059771195 0.024294475 0.14675
-0.04169371 0.0218355 0.14500001
-0.036400415 0.022101648 0.14614287
-0.033685472 0.022429083 0.14729413
-0.060367055 0.025302093 0.14533335
-0.059562087 0.025103534 0.14500001
-0.040996242 0.028106831 0.14558776
-0.037288904 0.027564039 0.14630556
-0.034006014 0.027377589 0.14827745
-0.041287102 0.032346234 0.14657955
-0.037773363 0.031396575 0.14865933
-0.034522235 0.03028973 0.149
-0.056967471 0.038832419 0.14511111
-0.042007647 0.037353054 0.14703231
-0.055926707 0.042699177 0.14699997
-0.052823048 0.043091021 0.14604479
-0.047824621 0.043633007 0.14526682
-0.043035053 0.042572636 0.14623818
-0.05557983 0.046049878 0.14893751
-0.052189089 0.046532899 0.14821875
-0.047430605 0.047275513 0.14778343
-0.043395028 0.047065213 0.14805448
-0.035813086 0.018522682 0.15237503
-0.03347538 0.01826252 0.15167165
-0.06306576 0.02241436 0.15168421
-0.032671433 0.022761343 0.15180902
-0.061898641 0.025064295 0.1525
-0.032773562 0.027256794 0.15282863
-0.040614653 0.034088407 0.15000004
-0.03673381 0.033437662 0.15041725
-0.033583865 0.03242116 0.15194325
-0.026327927 0.032105211 0.15400003
-0.040860467 0.038047001 0.15148246
-0.037329219 0.037238095 0.15237257
-0.033848695 0.036408596 0.1532297
-0.058089301 0.044356413 0.15000001
-0.041288592 0.042247929 0.15212491
-0.038377896 0.040331151 0.15400003
-0.035424449 0.014294204 0.15850002
-0.034201458 0.014168845 0.15740743
-0.036118731 0.017071027 0.15699999
-0.033078164 0.017376447 0.15652592
-0.063753597 0.022545537 0.155
-0.046836574 0.023294345 0.157125
-0.044889655 0.023006156 0.15700001
-0.032734167 0.021764085 0.15710872
-0.064045869 0.02762468 0.15774998
-0.032213762 0.027891809 0.15639395
-0.032184612 0.032315783 0.15633331
-0.026805846 0.033508908 0.15647368
-0.036359191 0.039363354 0.15499999
-0.032846604 0.037909545 0.15660347
-0.027163707 0.035783101 0.15784
-0.04036618 0.043158296 0.1550345
-0.037477531 0.042717416 0.15580627
-0.070025951 0.0096723493 0.164
-0.06931258 0.0094967205 0.1639412
-0.042047586 0.0099019883 0.1638889
-0.038382795 0.0099294251 0.16100001
-0.07084401 0.012687122 0.16236468
-0.06951201 0.012293468 0.16351995
-0.041435879 0.012188221 0.16199149
-0.0375374 0.012362409 0.16052647
-0.034326956 0.012668831 0.16034786
-0.070473053 0.017084051 0.16155367
-0.069628693 0.017783593 0.16259301
-0.040841635 0.016676761 0.16306528
-0.038770169 0.016611435 0.16208063
-0.034261882 0.015154579 0.16150001
-0.07019221 0.020683885 0.16127275
-0.068834178 0.021536732 0.1628572
-0.032763354 0.02342231 0.16033335
-0.06578131 0.028611716 0.16358335
-0.063271962 0.029528385 0.1628
-0.058281854 0.0284894 0.16313334
-0.032254916 0.027448416 0.16043392
-0.062053464 0.030446924 0.16313335
-0.03177933 0.032866485 0.16141178
-0.029113179 0.033853769 0.16040002
-0.031627081 0.037599809 0.16187009
-0.028758157 0.037505958 0.16194119
-0.066689126 0.0094414596 0.16505657
-0.062412482 0.0085340124 0.16743286
-0.045603193 0.0082895625 0.16757146
-0.043802671 0.0086847106 0.16650745
-0.070244417 0.014695531 0.16566668
-0.06713517 0.01281986 0.16574629
-0.062876984 0.012191729 0.16719788
-0.046400368 0.010180664 0.16800001
-0.044114467 0.013029379 0.16533335
-0.070195593 0.016720306 0.1661579
-0.067976601 0.017209115 0.16753709
-0.063477717 0.015827499 0.16860719
-0.042628858 0.016553579 0.16500001
-0.068939969 0.021424174 0.16696969
-0.066345297 0.028339632 0.16689797
-0.062075358 0.028105373 0.16742858
-0.058754336 0.027216928 0.16621423
-0.032661695 0.029336814 0.1667778
-0.065196216 0.030066123 0.16800001
-0.062773436 0.030552445 0.16620001
-0.032151245 0.032622896 0.16737731
-0.060816478 0.0044476558 0.17195833
-0.057668142 0.0044020824 0.17298217
-0.05278489 0.0044795009 0.17256816
-0.048341807 0.0046593482 0.17199999
-0.060947973 0.0072893812 0.1718701
-0.05791828 0.006857723 0.17347792
-0.052128222 0.0069647306 0.17334113
-0.047975916 0.006636939 0.17232004
-0.044348419 0.0066962852 0.17107692
-0.061137039 0.012590279 0.17182955
-0.059571382 0.011076218 0.17241669
-0.06716837 0.018814208 0.17000005
-0.062417388 0.017812556 0.17149748
-0.059836544 0.017809164 0.17400001
-0.067377485 0.022614103 0.17162582
-0.063112631 0.022492239 0.17287172
-0.056509469 0.02390147 0.17305766
-0.053560112 0.024291717 0.1731666
-0.049269501 0.024649659 0.17360002
-0.067293048 0.026281765 0.17217782
-0.062812969 0.026249317 0.17178743
-0.058201306 0.025874171 0.17189996
-0.054044992 0.025178909 0.17375001
-0.048971072 0.025139946 0.17300001
-0.057349894 0.0087831477 0.17532009
-0.053540178 0.0089272363 0.17528574
-0.060662009 0.013251176 0.17648533
-0.05727176 0.012477364 0.1767543
-0.052448299 0.012419604 0.17666106
-0.049610175 0.011596941 0.17540002
-0.060743108 0.017350052 0.17693023
-0.058422331 0.016580338 0.17829825
-0.051710289 0.016269555 0.17837499
-0.0489503 0.016903501 0.17715386
-0.061051954 0.022266516 0.17602719
-0.058267623 0.022696434 0.17677276
-0.052151136 0.022962295 0.17673995
-0.048723828 0.022667006 0.17678316
-0.067430079 0.026786722 0.176
-0.064496949 0.025938462 0.17533334
-0.052306265 0.025076298 0.17500001
-0.048617467 0.025076298 0.17500001
-0.05774086 0.014702047 0.18000001
-0.057584479 0.01816849 0.18064496
-0.052895535 0.018377332 0.1806667
-0.049614511 0.019000342 0.18016669
-0.057259332 0.021163901 0.18068676
-0.053174969 0.020816693 0.1806275
-0.049481735 0.020414257 0.18033335
