# .PCD v0.7 - Point Cloud Data file format
VERSION 0.7
FIELDS x y z
SIZE 4 4 4
TYPE F F F
COUNT 1 1 1
WIDTH 131
HEIGHT 1
VIEWPOINT 0 0 0 1 0 0 0
POINTS 131
DATA ascii
-0.011669619 -0.072213225 0.29400003
-0.0096946917 -0.072758026 0.294
0.0037245911 -0.071733117 0.29400003
0.0070021432 -0.071656577 0.29391176
0.0044475961 -0.069262184 0.294
0.0065133227 -0.069074392 0.29399997
-0.01775909 -0.075365745 0.29866669
0.014313775 -0.075771421 0.2976
-0.020961801 -0.072783373 0.29899999
-0.017653214 -0.072596781 0.29708341
-0.012962048 -0.071726188 0.29505411
-0.0076974081 -0.072019294 0.29512507
-0.002674985 -0.072238706 0.29569682
0.0015231632 -0.071819745 0.29516003
0.0090742931 -0.071975254 0.29500008
0.0127411 -0.07240098 0.29671627
0.015835552 -0.073833808 0.29900002
-0.016591445 -0.068093076 0.29758689
-0.012333472 -0.06736584 0.29664552
-0.0074943872 -0.067436278 0.29682505
-0.0025620852 -0.067528203 0.29755145
0.002368408 -0.067359962 0.2964595
0.0079274615 -0.067112066 0.29611433
0.011893683 -0.067990974 0.29814893
-0.012108519 -0.063830547 0.29884997
-0.0074661975 -0.063784286 0.29867995
-0.0023669945 -0.064122848 0.29900002
0.0031548853 -0.063185044 0.29838887
0.0069842669 -0.062811978 0.29794833
0.0104218 -0.06397593 0.29900002
-0.022442942 -0.077127442 0.3030417
-0.019378025 -0.07570219 0.30000001
-0.022715699 -0.072367184 0.30076197
0.015440583 -0.071135335 0.30075002
-0.021752153 -0.067417301 0.30148
-0.01848527 -0.066830546 0.30043489
0.014068231 -0.067220151 0.30050009
0.015572048 -0.067052677 0.30250007
-0.021377226 -0.06368424 0.303913
-0.01754304 -0.062579304 0.30182809
-0.012948426 -0.061882719 0.30047819
-0.0072642183 -0.061727796 0.30060795
-0.0022764711 -0.06205608 0.30133906
0.0017297283 -0.061628222 0.30051857
0.0084446426 -0.061124679 0.30007693
0.012338972 -0.062396739 0.30171645
0.015474846 -0.063547701 0.30299997
-0.016590077 -0.058552481 0.30332142
-0.012464624 -0.057418466 0.30290288
-0.0077898437 -0.057730269 0.30302742
-0.0024033911 -0.058379807 0.30363044
0.0025967287 -0.057443485 0.30200011
0.0075421245 -0.057481632 0.30179724
0.011503434 -0.058674615 0.30337498
0.0035800659 -0.053845871 0.30365214
0.0068108281 -0.053922933 0.30370829
0.014813988 -0.081716172 0.30800003
0.016529839 -0.081371792 0.30833337
-0.02538823 -0.075727537 0.30500001
-0.02448076 -0.076841526 0.30525002
0.017688347 -0.077511832 0.3083871
0.017836697 -0.073720537 0.30843484
-0.022450883 -0.061499458 0.30610719
-0.019948265 -0.060149457 0.30500001
0.014669696 -0.060149457 0.30500001
0.015795657 -0.061249863 0.30525002
-0.021086071 -0.058199778 0.30778265
-0.018123847 -0.05670331 0.30669999
-0.014013756 -0.055204034 0.30500001
-0.0061010811 -0.055486631 0.30500004
-0.0026788032 -0.055847522 0.30519229
0.00032796932 -0.055451304 0.30500001
0.013162304 -0.056731373 0.30608338
0.015832167 -0.057651322 0.30752179
-0.016661134 -0.052898191 0.30728573
-0.012183089 -0.052461103 0.30596864
-0.0071434677 -0.052524652 0.30634373
-0.0024230748 -0.05263754 0.30721045
0.0021111651 -0.051853605 0.30560002
0.0078105857 -0.051758535 0.30575565
0.011955722 -0.05279538 0.30772918
0.015363113 -0.054424942 0.30900002
-0.015775934 -0.049554747 0.30883336
0.016920781 -0.082498118 0.31
0.018177405 -0.072696455 0.31
-0.023793831 -0.060632866 0.31
-0.02281048 -0.057212166 0.31090906
0.016250581 -0.055773921 0.31
-0.021617519 -0.052787226 0.3123
-0.018921571 -0.051522158 0.31105882
0.013947688 -0.051450476 0.31020001
0.016251707 -0.052437734 0.31160003
-0.020219114 -0.083332978 0.317
-0.020140244 -0.090163961 0.324
-0.017363396 -0.090839416 0.32400003
0.01374482 -0.090689316 0.324
0.015677188 -0.09061031 0.32325
-0.020490477 -0.088471174 0.324
-0.018669263 -0.086486511 0.324
0.013993084 -0.088672429 0.32366669
0.01622864 -0.089031056 0.32238466
-0.016462795 -0.084385112 0.324
0.018184897 -0.071986489 0.32299998
0.018257121 -0.06775289 0.32249999
-0.016980652 -0.091036834 0.32512501
-0.012595057 -0.092113592 0.32755318
-0.0077446159 -0.092493996 0.32787505
-0.0024941042 -0.09173613 0.32616672
0.0026523035 -0.091615021 0.32573822
0.0075500384 -0.091990888 0.32620376
0.01168949 -0.09147469 0.32530001
-0.01708414 -0.087736689 0.32540902
-0.012930735 -0.087943681 0.32804087
-0.0076564113 -0.08871378 0.32854843
-0.0026736627 -0.087482415 0.32744062
0.0025877252 -0.087429255 0.32750949
0.0072677559 -0.088592619 0.32808828
0.011954236 -0.088606156 0.32676193
-0.015345808 -0.084110484 0.32633334
-0.014100675 -0.08432129 0.3284286
-0.0015716698 -0.084525533 0.32815388
0.0020420987 -0.084312886 0.32861114
-0.011468517 -0.086117126 0.33009091
-0.0082160085 -0.086345769 0.33036664
0.0076011652 -0.086623833 0.33019999
0.010781953 -0.086673588 0.33054549
-0.011851533 -0.084714733 0.33020005
-0.0074929669 -0.084699288 0.33000001
0.0046354802 -0.084342569 0.33000001
0.0070730597 -0.084699303 0.33000001
0.010521344 -0.084877647 0.33000001
