# .PCD v0.7 - Point Cloud Data file format
VERSION 0.7
FIELDS x y z
SIZE 4 4 4
TYPE F F F
COUNT 1 1 1
WIDTH 221
HEIGHT 1
VIEWPOINT 0 0 0 1 0 0 0
POINTS 221
DATA ascii
0.011514639 0.009828629 0.15900001
0.0097459843 0.012268137 0.15863636
0.012486639 0.012122456 0.15845384
0.015926467 0.011792286 0.15891312
0.029785359 0.014493503 0.15800001
0.01039746 0.015478976 0.15900001
-0.0065872315 0.0091652069 0.16327089
-0.0024549393 0.0087594083 0.16234824
0.0026034904 0.0089401715 0.16367844
0.0072027911 0.009306686 0.16261823
0.010468972 0.0097842142 0.161
0.018883586 0.0096634431 0.16000004
0.022955758 0.0089927465 0.16185904
0.025971603 0.0081705051 0.1635
-0.0064253695 0.011558071 0.16357747
-0.0028820538 0.011910536 0.16331753
0.002045657 0.010966796 0.1637903
0.007830956 0.012219788 0.16204798
0.012612024 0.014237075 0.16019565
0.01806088 0.012970786 0.16049284
0.022135163 0.012308272 0.16255844
0.025463657 0.010980062 0.16393337
0.0087445397 0.016504683 0.16325004
0.01249501 0.017521059 0.16193886
0.017350731 0.017309247 0.16265345
0.020985685 0.016112419 0.16383336
0.011888391 0.021639738 0.16366656
0.016053211 0.020778324 0.16400002
0.011078982 0.02509558 0.164
0.02621411 0.0043577855 0.16899998
-0.0109066 0.0073783682 0.16825871
-0.0079034008 0.0071613314 0.16675864
-0.0036431474 0.0071426802 0.16580002
0.0091399914 0.009463788 0.16500001
0.024560776 0.0073204264 0.16800001
0.027119618 0.0068167881 0.16692215
-0.010426958 0.010867607 0.16900001
-0.0075425669 0.013243672 0.16607577
-0.0016465457 0.013901899 0.16517186
0.0027216945 0.013179921 0.16589718
0.0056284186 0.013568822 0.16624387
0.024268482 0.014052811 0.16508332
0.026321607 0.012605331 0.16622728
-0.0065947198 0.017438877 0.16690078
-0.0024833442 0.017448897 0.16680835
0.0022741812 0.017215014 0.16808023
0.0069467984 0.017769825 0.16669917
0.019233519 0.019350579 0.16499999
0.022935137 0.017740665 0.16630079
0.025685463 0.017215872 0.16800001
-0.0062140389 0.021571562 0.16838989
-0.0029068547 0.021515343 0.16857423
0.00092829735 0.02109981 0.16890006
0.0086357724 0.022451311 0.16690326
0.013078879 0.02305756 0.16561958
0.017760413 0.022777194 0.16620761
0.021706812 0.021925071 0.16804999
0.0093003903 0.026480209 0.16840006
0.0127356 0.027463457 0.16756724
0.017028559 0.027155317 0.16833805
0.020569194 0.025531858 0.16900001
0.012370541 0.030582665 0.16868749
-0.012667475 0.0038511187 0.17321815
-0.0096875271 0.0049016136 0.17400001
0.024784833 0.0041919891 0.1728
0.02611874 0.002978672 0.17136364
-0.012245658 0.0071574706 0.17139535
-0.0075242789 0.0063624466 0.1709
0.025266636 0.0056847837 0.17
-0.011415031 0.012449536 0.17132355
-0.0095143719 0.014097158 0.17033334
0.027853472 0.013312771 0.16999999
-0.010780252 0.016729562 0.17305259
-0.0094152223 0.017265124 0.17158335
0.0034322278 0.018996647 0.17014818
0.0059024678 0.019501565 0.16999999
0.027020335 0.018260978 0.17163891
-0.0071057579 0.023398435 0.1714375
-0.002038094 0.023369541 0.17035557
0.0027392297 0.022708151 0.17157252
0.0059485515 0.022609377 0.17145586
0.02360069 0.023467038 0.17031948
0.026419355 0.022426132 0.17218998
-0.0062600286 0.027025366 0.17306665
-0.002539014 0.027272537 0.17294006
0.0021851868 0.026641866 0.17328571
0.0071362252 0.027360229 0.17267959
0.010390216 0.029188829 0.17014286
0.018967927 0.028696528 0.17042108
0.022533765 0.027494326 0.17189249
0.025884546 0.026463525 0.17339997
-0.0027551337 0.030051695 0.17400001
0.0092519298 0.03179726 0.17202435
-0.011386036 -0.0004858592 0.17895235
-0.0099659041 -0.00082037406 0.17900001
0.028555388 -0.0010026 0.17707142
0.030538142 -0.0011530038 0.17874996
-0.012006134 0.0020345435 0.17739223
-0.0071227415 0.0040860735 0.17771429
0.024845567 0.0024960265 0.17560001
0.028215494 0.001904516 0.17625962
0.030387437 0.0020189504 0.17891668
-0.0058197132 0.0059036352 0.177625
-0.013668287 0.013766537 0.17729999
-0.01244613 0.017582161 0.17684621
0.028097397 0.017881116 0.175
-0.010763931 0.022554599 0.17709526
-0.0094768293 0.023111405 0.17607145
0.003545932 0.024366915 0.17500001
0.027775686 0.02335348 0.17514287
-0.010620864 0.026333429 0.17838094
-0.0084423972 0.027785866 0.17682001
-0.00096658355 0.029369885 0.17533335
0.0028392128 0.028554199 0.17557819
0.0063591902 0.029260641 0.17510524
0.024874756 0.029616358 0.17500001
0.026922001 0.027957918 0.17667444
-0.0065957466 -0.0053439806 0.18350002
0.029417889 -0.0056865914 0.1838889
0.030562952 -0.0058088121 0.18385717
-0.0079437001 -0.0022927418 0.18258981
0.029113976 -0.0036053532 0.1825417
0.031373605 -0.0029602018 0.18139398
-0.010422425 0.0027772964 0.18028003
-0.0081987251 0.002042427 0.18102494
0.031527441 0.0025607119 0.18237843
-0.0050599426 0.0065299398 0.18000001
0.030644508 0.0052964655 0.18275002
-0.013488513 0.019206736 0.1805
-0.012936329 0.022210553 0.18223339
-0.010216205 -0.0083130384 0.18900001
-0.0084701823 -0.0064018779 0.18794118
0.027606739 -0.007085836 0.18789029
0.031695601 -0.0052874023 0.185
-0.0067678588 -0.0029013546 0.18681249
0.028201649 -0.0034832649 0.18704762
0.031995568 -0.004987434 0.185
-0.0060248571 0.0027031368 0.18751998
-0.0058944947 0.0052959961 0.18800001
-0.0067570359 -0.010551167 0.19226085
-0.0037387367 -0.011371666 0.1937667
0.0092426213 -0.010960384 0.1938125
0.012686901 -0.011021242 0.19255744
0.017674571 -0.011237591 0.19259702
0.022228854 -0.011350115 0.19284204
0.025568105 -0.010437868 0.1914286
-0.0069234325 -0.0081194723 0.19181745
-0.0043480075 -0.008981769 0.19381818
0.0092609851 -0.0092145102 0.19400001
0.012965792 -0.008198279 0.19293752
0.017245779 -0.0081860172 0.19332126
0.022652524 -0.0085748704 0.19338305
0.02578105 -0.007327477 0.19036365
-0.0055006254 -0.0028170552 0.19180642
0.02641404 -0.0030234039 0.19132254
-0.0055501498 0.0026086846 0.19095457
0.024491046 0.00058724196 0.19325
0.025158426 0.00011505352 0.19000001
-0.0055411621 0.0058318297 0.19222222
0.012848256 0.0097830854 0.19400001
0.016880361 0.0097790016 0.19400002
0.012758609 0.010647152 0.19322224
0.016677953 0.010470942 0.19350001
-0.0012903 -0.011647436 0.19549228
0.0024153055 -0.012206698 0.19723709
0.0063001211 -0.011841946 0.19703992
-0.0022764872 -0.0073725609 0.19650325
0.0022065979 -0.0085400734 0.19858035
0.0075434772 -0.0077788383 0.19740911
0.011593753 -0.006125195 0.19547172
0.018118929 -0.0059150881 0.19517395
0.022270544 -0.0062900619 0.19534716
-0.0052146162 -0.0018348729 0.19685717
-0.0035654544 -0.002937167 0.1977718
0.0092795491 -0.0030491876 0.19781083
0.012615787 -0.0027312839 0.19647405
0.017404944 -0.0026357812 0.19674645
0.023183856 -0.0029215016 0.19670582
0.025206575 -0.0019602994 0.19514289
-0.0052506765 0.0023994991 0.19735713
-0.0045060683 0.0018672163 0.19886109
0.013810708 0.00042328713 0.19829416
0.017059611 0.00038032688 0.19830769
0.023810005 0.00066041935 0.19730772
-0.0051654223 0.0062309466 0.19500002
-0.0034014964 0.0072639603 0.19761541
0.0030058089 0.0081707453 0.19790626
0.0075184647 0.0086698681 0.19800001
0.012531603 0.0086535737 0.19742469
0.017271725 0.0087246485 0.19686954
0.022430021 0.0079059452 0.19722582
0.0085325688 0.010259126 0.19850002
0.013491383 0.0107895 0.19575001
0.015293039 0.010701789 0.19583336
-0.00010922818 -0.0053918203 0.2
0.0028181144 -0.0063155247 0.20026976
0.0060641221 -0.0063453955 0.20067646
-0.0012357037 -0.0021804993 0.20122665
0.0025423125 -0.0026733121 0.20238557
0.0067617404 -0.002529786 0.20270661
0.010939564 -0.00066758279 0.20042859
0.019996755 -0.0016393225 0.20000002
0.021142416 -0.0019056583 0.20128575
-0.0021992526 0.0025414086 0.20168506
0.001557889 0.0028059171 0.20376679
0.0082006026 0.0027316855 0.20252392
0.012348249 0.0026606559 0.20056684
0.017472874 0.0028551163 0.20034096
0.021792585 0.0024340691 0.20177308
-0.0019676103 0.0062398654 0.20156452
0.0022880877 0.0064126155 0.2020375
0.0074715195 0.0062978603 0.20103411
0.01227222 0.0062538455 0.20052235
0.01767868 0.0064583858 0.20032559
0.021590695 0.0064688786 0.20093653
0.0083223125 0.010174098 0.2
0.0031012148 -0.00020826054 0.20500001
0.0071343011 -0.00087305496 0.20500003
-0.0017739452 0.0037805061 0.20500001
0.0031024327 0.0020198964 0.20499995
0.0066437568 0.0018015228 0.20510411
