# .PCD v0.7 - Point Cloud Data file format
VERSION 0.7
FIELDS x y z
SIZE 4 4 4
TYPE F F F
COUNT 1 1 1
WIDTH 182
HEIGHT 1
VIEWPOINT 0 0 0 1 0 0 0
POINTS 182
DATA ascii
-0.0070372941 -0.027368451 0.22339995
-0.0026157242 -0.027289897 0.22354762
0.0039383168 -0.027557397 0.22377418
0.0076221898 -0.026441615 0.22173968
0.012580085 -0.026339918 0.22151904
0.01706966 -0.027169708 0.2233749
-0.0060546808 -0.024925491 0.22400002
0.0081961229 -0.022872025 0.22319482
0.012160299 -0.022690199 0.22341357
0.015597676 -0.024333233 0.22389999
-0.017343987 -0.031195128 0.22868752
-0.012341789 -0.030590912 0.22833335
-0.0092862425 -0.030278305 0.22600001
0.019571064 -0.030445654 0.22633335
0.022185722 -0.030929958 0.22648147
-0.017391078 -0.029937604 0.22900002
-0.011609016 -0.027578164 0.22682816
-0.008938943 -0.026197961 0.22530429
-0.0013877758 -0.025911368 0.22509995
0.0019096809 -0.026696058 0.22528216
0.018764367 -0.025954032 0.22539283
0.021727188 -0.02748083 0.22658026
-0.010836749 -0.022884686 0.22864296
-0.0075245313 -0.02231347 0.22673145
-0.0025466024 -0.022251455 0.22677162
0.0024156077 -0.022389617 0.22770272
0.006024255 -0.021657918 0.22568293
0.014033592 -0.020612782 0.22529995
0.017552391 -0.022242097 0.22667567
0.02091082 -0.023417085 0.2283438
-0.010521804 -0.019540867 0.22900002
-0.0064033195 -0.018942289 0.22887507
-0.0032449753 -0.019077564 0.22888896
0.0033697444 -0.019379042 0.22891669
0.0078761932 -0.017458865 0.22689317
0.012401824 -0.017456247 0.22667997
0.016268441 -0.017885029 0.22872731
0.0087358747 -0.013400835 0.22859381
0.01196333 -0.013683385 0.22885008
0.015098728 -0.014342499 0.22900002
-0.017296523 -0.035144296 0.23400001
-0.01667317 -0.03268031 0.23181626
-0.013889622 -0.031538617 0.23195456
0.023231192 -0.033174407 0.23246427
-0.01667971 -0.02782497 0.23306054
-0.014295569 -0.027232319 0.23182757
0.024299005 -0.026516709 0.23282613
0.025293298 -0.02793533 0.23400001
-0.015380454 -0.024292903 0.23400001
-0.01295063 -0.022603685 0.23199999
0.019639865 -0.020372067 0.23
0.022770049 -0.022449654 0.23124656
-0.011340705 -0.017790567 0.2323478
-0.0079555018 -0.017035518 0.23079506
-0.0023993475 -0.016878847 0.2307245
0.0022598503 -0.017225992 0.23101042
0.005471122 -0.016442867 0.23011109
0.018271295 -0.016793607 0.23057804
0.021553451 -0.017786248 0.23261844
-0.010528395 -0.014158883 0.23385715
-0.0070146602 -0.012646195 0.23295394
-0.0025523757 -0.012546476 0.23311001
0.0025942437 -0.013062917 0.23363295
0.00685234 -0.011866678 0.2319027
0.012851673 -0.011450862 0.2306446
0.017457888 -0.012475561 0.23233335
0.020866739 -0.014234078 0.234
-0.0060467385 -0.0091540758 0.234
-0.0037797079 -0.0092015024 0.234
0.0085277827 -0.0077755461 0.23213641
0.012312638 -0.0075312033 0.23307057
0.01597034 -0.0086073224 0.23360005
-0.01631915 -0.036713716 0.23791888
-0.014133155 -0.036308609 0.23900005
0.02329405 -0.036599416 0.23748274
0.025446225 -0.03628277 0.23900001
-0.015790213 -0.034643579 0.23750001
-0.013493886 -0.03379938 0.23833331
0.024484182 -0.034620419 0.23625001
0.025251616 -0.032253552 0.23547374
-0.017513329 -0.025149275 0.23500001
0.024744155 -0.029322078 0.23600002
0.025147362 -0.029070817 0.23500001
-0.01667772 -0.022177335 0.23657145
-0.014480111 -0.021245895 0.23557144
0.023978831 -0.020138185 0.23600002
-0.016538018 -0.018720921 0.23896548
-0.013628723 -0.017494885 0.23716128
0.023749474 -0.01683539 0.23676929
-0.011627897 -0.012518435 0.23680852
-0.0089099975 -0.011049626 0.23545463
-0.00089042477 -0.010363534 0.23500003
0.0019749033 -0.010632132 0.23516138
0.019304737 -0.010526839 0.23500003
0.022535648 -0.012367256 0.23685305
-0.010763253 -0.0077234567 0.23829624
-0.0074905562 -0.0071609984 0.23655181
-0.0022136511 -0.007231717 0.23610216
0.0025564129 -0.0073875729 0.23748013
0.0061102081 -0.0068721152 0.2364445
0.014012503 -0.0054039555 0.23500003
0.017831217 -0.0070068073 0.23620938
0.021380162 -0.0079533774 0.23814894
0.024489341 -0.040707957 0.24180003
0.026364995 -0.04098757 0.2428889
-0.015307847 -0.038769465 0.24000001
-0.013009219 -0.037482098 0.24107316
0.023757182 -0.038813069 0.24014997
0.02621441 -0.037711315 0.2410572
-0.011970638 -0.03432025 0.24100001
-0.016647747 -0.016528668 0.2415484
-0.01493424 -0.01592268 0.24025001
0.024774399 -0.01762576 0.24000001
-0.016231595 -0.012618526 0.24317026
-0.014075828 -0.012262111 0.24221429
0.02466003 -0.010690576 0.2404
0.025268396 -0.010600223 0.24100001
-0.016552061 -0.0097430917 0.24400002
0.023887891 -0.04548138 0.2485
0.025496986 -0.04510672 0.24700001
-0.015186826 -0.042106964 0.24820001
-0.01290083 -0.041498274 0.24800007
0.024187278 -0.043596338 0.24763158
0.026090907 -0.043469921 0.24614288
-0.011344432 -0.038284574 0.2476957
-0.01684249 -0.010724342 0.24533334
-0.014434994 -0.010577532 0.245
-0.015480659 -0.045710158 0.25300002
-0.01231489 -0.046527155 0.25321442
-0.0095758829 -0.047692277 0.2538
0.0085100951 -0.049305424 0.25399998
0.010157488 -0.049679831 0.25400001
0.019230157 -0.046943884 0.25304171
0.021476597 -0.046542678 0.25154054
-0.015764086 -0.044269156 0.2525
-0.011865349 -0.043349981 0.25257781
-0.0097601861 -0.040966727 0.25360003
0.019610275 -0.044230491 0.25375
0.021724826 -0.043128885 0.25267503
-0.010973522 -0.037776809 0.25188234
-0.0099836187 -0.037587665 0.25300002
-0.006156418 -0.050476376 0.25688887
-0.002332638 -0.051034879 0.25772223
0.0022209664 -0.050756749 0.2574583
0.013791842 -0.050442364 0.25592861
0.016623819 -0.050394647 0.25606254
-0.0071166991 -0.047165524 0.25662351
-0.0025548495 -0.047761403 0.25824422
0.0025170534 -0.047376506 0.25723249
0.007310471 -0.04726129 0.25506756
0.012408356 -0.047370423 0.25573406
0.016781081 -0.047383685 0.25594816
-0.010062542 -0.043200843 0.25500003
-0.0079147546 -0.042808931 0.25740275
-0.0044809915 -0.044498436 0.259
0.0034188847 -0.042792466 0.25760373
0.0075465618 -0.04255984 0.25704888
0.012463881 -0.04278468 0.25793263
0.017438108 -0.042785738 0.25753951
0.020305393 -0.041407578 0.25537503
-0.010628835 -0.036257133 0.25556254
-0.0090655955 -0.037714683 0.25735715
0.0046180459 -0.039458968 0.25900003
0.007550919 -0.039114475 0.25890315
0.010777395 -0.039633948 0.259
0.019176506 -0.038689047 0.259
0.020120753 -0.039538678 0.25500003
-0.0016409371 -0.045513395 0.26000002
-0.0061002881 -0.041581679 0.26050007
-0.0024138049 -0.042551368 0.26153684
0.0012307884 -0.042104326 0.26075011
0.013875439 -0.040735524 0.26000002
0.016376158 -0.040927149 0.26000002
-0.0070984298 -0.037747398 0.26172423
-0.0024714095 -0.038120214 0.26352572
0.0026287984 -0.037570849 0.26165429
0.0078108055 -0.036676943 0.26000017
0.012570853 -0.037542369 0.26051164
0.01699244 -0.037963275 0.26059726
0.0042288871 -0.034544226 0.26100004
0.0079282969 -0.034268588 0.2603125
0.011735542 -0.034344696 0.2605556
