# .PCD v0.7 - Point Cloud Data file format
VERSION 0.7
FIELDS x y z
SIZE 4 4 4
TYPE F F F
COUNT 1 1 1
WIDTH 159
HEIGHT 1
VIEWPOINT 0 0 0 1 0 0 0
POINTS 159
DATA ascii
0.089059651 -0.02598932 0.21400002
0.091594182 -0.025864506 0.21400005
0.089348808 -0.024622386 0.21400002
0.091514282 -0.024416765 0.21400006
0.072837114 -0.026894925 0.21848619
0.077324696 -0.026803659 0.21786858
0.082415171 -0.026988629 0.21793203
0.086539209 -0.026480816 0.21640353
0.094327539 -0.026318695 0.21533333
0.097508557 -0.026664902 0.21764915
0.10001791 -0.027742542 0.21900001
0.073710509 -0.023778196 0.21881391
0.077417769 -0.023408636 0.21867751
0.082624041 -0.023908343 0.21857356
0.087697081 -0.022917593 0.21694735
0.092600286 -0.021964047 0.21675001
0.096017025 -0.023007534 0.21789284
0.089241862 -0.018656006 0.21864711
0.092213318 -0.018348601 0.2187632
0.095401645 -0.019042652 0.21900001
0.068048626 -0.031125385 0.22297561
0.07054998 -0.030328035 0.22260001
0.10235472 -0.030419081 0.22379999
0.068541571 -0.027703406 0.22244151
0.070651636 -0.027248543 0.22037496
0.098691016 -0.028404299 0.22000001
0.10093834 -0.027827922 0.22107145
0.069812432 -0.023611937 0.223625
0.071951129 -0.022111328 0.22124545
0.077545695 -0.020759761 0.22005549
0.082332574 -0.02127781 0.22073244
0.086489476 -0.020957053 0.22022574
0.098369524 -0.022803616 0.22135295
0.1005775 -0.024060644 0.2234
0.073010787 -0.017682195 0.22311226
0.077390701 -0.017749872 0.22269751
0.082880639 -0.017941553 0.22272825
0.087311007 -0.01735249 0.22125626
0.092631303 -0.016058093 0.22060977
0.096985042 -0.017125415 0.22196719
0.084867589 -0.014755755 0.22400001
0.088218689 -0.013257788 0.22301126
0.092521034 -0.012645927 0.222287
0.09579628 -0.013377238 0.22327781
0.091882862 -0.00945656 0.22363637
0.099562347 -0.035670199 0.22720002
0.10134719 -0.036342919 0.22756527
0.06450437 -0.031855509 0.22766671
0.066037349 -0.03174109 0.22567567
0.099135488 -0.032429166 0.22718659
0.10174863 -0.032349441 0.22708629
0.063825198 -0.027579909 0.22717658
0.066574082 -0.026825735 0.22607803
0.098368168 -0.029448252 0.22627275
0.10182536 -0.027032971 0.22520001
0.063749902 -0.02435712 0.2289
0.068254136 -0.022312788 0.22664212
0.070361562 -0.020804778 0.22500001
0.10217432 -0.022777747 0.22692317
0.069039181 -0.018061846 0.22792315
0.070707649 -0.016855529 0.22657146
0.077618279 -0.015219619 0.22499999
0.082438417 -0.015783442 0.22499993
0.099170677 -0.015429671 0.22500001
0.10205407 -0.016818704 0.22839539
0.072866179 -0.012579117 0.22663721
0.077429093 -0.012457174 0.22638266
0.082509287 -0.012426277 0.2263871
0.086700872 -0.01140302 0.22548342
0.091539718 -0.010170093 0.22500001
0.098217443 -0.012176272 0.22713561
0.1011696 -0.013462694 0.22886963
0.073993348 -0.0086135902 0.22867863
0.077330917 -0.0084360726 0.22862688
0.082886301 -0.0088323811 0.22864002
0.087715678 -0.0075536715 0.22749156
0.092375137 -0.0069909315 0.22656126
0.09668956 -0.0081313001 0.227449
0.064134076 -0.035310838 0.23075001
0.067022815 -0.036030889 0.23287497
0.064416498 -0.032991003 0.23026669
0.066044755 -0.033544119 0.23046669
0.064080305 -0.022044383 0.23068748
0.065988734 -0.022434056 0.23028252
0.064621843 -0.019324817 0.23199999
0.067233063 -0.017588828 0.23171428
0.10325157 -0.019178679 0.23
0.069028698 -0.012452304 0.23229414
0.070925944 -0.012076483 0.2304074
0.10171393 -0.011579442 0.23
0.069496825 -0.0085043963 0.23358333
0.072125226 -0.0072220005 0.23173343
0.077577882 -0.0058660237 0.23054536
0.082460582 -0.0064930562 0.23112501
0.085896358 -0.0055367872 0.23033336
0.098401085 -0.0062842444 0.23060527
0.10123265 -0.0081726192 0.2313235
0.068195894 -0.038374186 0.23875001
0.063811362 -0.021750523 0.23900001
0.066225059 -0.016230408 0.23544453
0.066685505 -0.012371521 0.23616441
0.064612336 -0.042231675 0.24200001
0.067127764 -0.041846067 0.24179405
0.070321865 -0.041184574 0.24275002
0.10312039 -0.042097501 0.24305888
0.10578368 -0.041934468 0.24294122
0.067647174 -0.039213639 0.24092004
0.070450783 -0.039241005 0.2405
0.10273358 -0.038627144 0.24325001
0.069078758 -0.045993395 0.24759999
0.072079457 -0.046509944 0.24884616
0.087736025 -0.046425659 0.24882138
0.092222236 -0.046977285 0.24898231
0.097619087 -0.046800729 0.24851508
0.10111747 -0.045721736 0.24600004
0.06866432 -0.044501476 0.24550001
0.072584651 -0.042747043 0.2474865
0.075498179 -0.040761642 0.24900001
0.089090794 -0.044664472 0.24900001
0.090705752 -0.044664472 0.24900001
0.099606223 -0.043368381 0.24852178
0.10105861 -0.042575989 0.24632138
0.074004918 -0.039497618 0.24783334
0.099991933 -0.039476797 0.24875002
0.10176561 -0.037651468 0.24727267
0.1022938 -0.033010595 0.24773689
0.074558273 -0.046357203 0.25
0.077740446 -0.047211386 0.25214872
0.082527153 -0.047244858 0.2522746
0.085557103 -0.046303153 0.25
0.09381403 -0.04581048 0.25
0.096745096 -0.046424769 0.25
0.074450158 -0.043952055 0.25
0.077514164 -0.043062944 0.25268
0.08349552 -0.043200571 0.25292456
0.087413579 -0.042260434 0.25127372
0.092528544 -0.042370349 0.25096649
0.097211912 -0.042225078 0.25088999
0.074855529 -0.038628288 0.25
0.076711506 -0.038773801 0.25247619
0.08470203 -0.039795473 0.25400001
0.087861203 -0.038663298 0.2536667
0.092170537 -0.038359139 0.25322729
0.098116413 -0.03793868 0.25215966
0.10090539 -0.036207628 0.25026667
0.083490491 -0.034647878 0.25369999
0.085113883 -0.034441445 0.25400001
0.099105775 -0.034136064 0.25174075
0.100985 -0.034138571 0.25015384
0.079476371 -0.041295249 0.25564289
0.082115076 -0.041735087 0.25596872
0.078968197 -0.038095575 0.25530007
0.082677312 -0.037651174 0.25649309
0.086879574 -0.036685731 0.25500008
0.092743769 -0.036216155 0.25500008
0.096382856 -0.036042292 0.25540748
0.087571457 -0.034852695 0.25500008
0.09252964 -0.034990516 0.25500003
0.097704798 -0.034897886 0.25533336
