# .PCD v0.7 - Point Cloud Data file format
VERSION 0.7
FIELDS x y z
SIZE 4 4 4
TYPE F F F
COUNT 1 1 1
WIDTH 156
HEIGHT 1
VIEWPOINT 0 0 0 1 0 0 0
POINTS 156
DATA ascii
-0.04626992 0.029383279 0.12846507
-0.04155672 0.029566694 0.12675379
-0.038357444 0.029278545 0.12815385
-0.045492765 0.032008946 0.12800001
-0.042022068 0.032292333 0.12712978
-0.038899202 0.031739384 0.12851754
-0.042715669 0.035887238 0.12874997
-0.051206112 0.028674696 0.13137932
-0.049118973 0.028749103 0.13080363
-0.03626753 0.028960185 0.13111901
-0.033671923 0.028499169 0.1329781
-0.051617417 0.032048125 0.13341124
-0.04871887 0.032272592 0.13217397
-0.03692653 0.032781295 0.13145052
-0.034379713 0.031462345 0.13329576
-0.046101373 0.038015269 0.13316667
-0.041777182 0.037770476 0.13085341
-0.03792939 0.037096024 0.13234673
-0.034728438 0.035388213 0.134
-0.041986592 0.04173464 0.13331215
-0.038992111 0.041181207 0.13367234
-0.035517167 0.024594413 0.13900001
-0.035280515 0.025146602 0.13900001
-0.033428229 0.02710407 0.13732587
-0.052143995 0.034280479 0.13503784
-0.049794335 0.034604728 0.13500001
-0.035162717 0.033835471 0.13500001
-0.033267699 0.032929897 0.13623549
-0.055425476 0.039302606 0.13800001
-0.052475102 0.037653048 0.1370796
-0.048774976 0.038007911 0.13631919
-0.036008973 0.038142648 0.13560475
-0.03375338 0.037358586 0.13757293
-0.055281423 0.041821074 0.13850001
-0.053503666 0.041418754 0.13866664
-0.048777517 0.041246809 0.13850002
-0.041622043 0.04418743 0.13526239
-0.037277102 0.042560894 0.13701811
-0.034799453 0.041294128 0.13811766
-0.041789822 0.047374323 0.13736866
-0.03850821 0.047259174 0.13808033
-0.035802204 0.023308752 0.14236799
-0.034860369 0.024147693 0.14340003
-0.035343681 0.025616072 0.14125
-0.033708535 0.027204577 0.14139585
-0.032700974 0.032685909 0.14230342
-0.032319307 0.037580308 0.14182691
-0.055056591 0.044486564 0.14
-0.052251376 0.043309692 0.14077026
-0.04926917 0.043278694 0.14090241
-0.035833854 0.043929826 0.14021876
-0.033077173 0.042272888 0.14166483
-0.032723308 0.019443108 0.14722443
-0.035447717 0.021827636 0.14547369
-0.03320061 0.022538276 0.14699155
-0.033821873 0.027207591 0.14800012
-0.03282211 0.032692201 0.14821517
-0.031915028 0.038165715 0.14617045
-0.031492464 0.042746738 0.14704584
-0.065570958 0.016705802 0.1534
-0.064266294 0.018465895 0.1531
-0.032870594 0.01811691 0.15244183
-0.063773401 0.0223902 0.15191722
-0.031508949 0.022914127 0.15131818
-0.065577172 0.029614385 0.15300001
-0.063665651 0.027494991 0.15233345
-0.031714994 0.02753821 0.15170421
-0.065081015 0.031102877 0.15300003
-0.06366536 0.031035084 0.15299998
-0.055494785 0.033559855 0.15380001
-0.053673726 0.03407719 0.15384002
-0.035467099 0.031084338 0.1505
-0.032509584 0.031757444 0.15195268
-0.053520616 0.035051711 0.15400001
-0.032286845 0.03741144 0.15253332
-0.066081434 0.013517466 0.15728715
-0.064902142 0.012264658 0.15800001
-0.036970314 0.013746031 0.15724139
-0.034865305 0.014765344 0.156
-0.065757617 0.016301621 0.157463
-0.06433437 0.017715648 0.15512499
-0.035798889 0.015963353 0.15611535
-0.0344931 0.016405629 0.15576471
-0.065312907 0.022267988 0.15900001
-0.06398581 0.022799402 0.15583789
-0.03171682 0.023875138 0.15519999
-0.063663594 0.027958851 0.15675896
-0.031225806 0.028595032 0.15731999
-0.062601291 0.032217104 0.15751129
-0.057341289 0.032833941 0.15751067
-0.052699097 0.033034086 0.15764488
-0.049018413 0.033400256 0.15800001
-0.031101009 0.033052351 0.15635048
-0.029992862 0.0347718 0.15900001
-0.061027281 0.035425093 0.15875001
-0.061328806 0.0097562466 0.16350003
-0.059274167 0.0098065259 0.1638182
-0.043635413 0.0097776223 0.16136363
-0.06540636 0.013707453 0.16063891
-0.062614657 0.012772148 0.16277133
-0.059195023 0.011937065 0.16377415
-0.051888466 0.012800602 0.16130701
-0.047334701 0.013008946 0.1604178
-0.042951897 0.012534437 0.16161385
-0.039241206 0.012866975 0.16035296
-0.065503635 0.017758459 0.16134523
-0.063543119 0.01707733 0.16294652
-0.058848102 0.017617611 0.16205364
-0.051586233 0.017027924 0.1632093
-0.04740829 0.017360259 0.1619228
-0.04343269 0.016875332 0.16301675
-0.03928021 0.016803999 0.16250001
-0.065527141 0.02218396 0.16207501
-0.063965246 0.020608217 0.16400003
-0.059004672 0.021409802 0.1636316
-0.05087987 0.020043142 0.164
-0.046888702 0.021626536 0.16370577
-0.044367183 0.021905083 0.16306667
-0.065226369 0.025568821 0.16171429
-0.063806169 0.028428856 0.16167651
-0.057477951 0.029441614 0.16290005
-0.052245419 0.029233202 0.16327505
-0.047663845 0.029532367 0.16288891
-0.061790545 0.031038729 0.16108817
-0.057588913 0.031163812 0.16111326
-0.052248772 0.031297341 0.16188456
-0.04818492 0.031586159 0.16137001
-0.056808434 0.0098721404 0.16499999
-0.057566728 0.012768185 0.16557723
-0.05481784 0.010549501 0.16525
-0.0626399 0.017904332 0.16567096
-0.058350395 0.017233625 0.16740561
-0.052884612 0.01883384 0.1653548
-0.042505857 0.018402049 0.16607849
-0.039412659 0.018957824 0.16520002
-0.065684982 0.023436731 0.16536362
-0.063026354 0.022689074 0.16716397
-0.059080698 0.021535067 0.16788889
-0.051782515 0.021951741 0.1670149
-0.047667675 0.023265822 0.16550742
-0.043407518 0.021156169 0.16642997
-0.065472305 0.026897283 0.16604248
-0.063059747 0.027422886 0.16762328
-0.057828058 0.027903577 0.16690142
-0.051783495 0.028554598 0.16811761
-0.048894864 0.027284401 0.16643998
-0.062272184 0.030252175 0.16536365
-0.055470735 0.030171325 0.16500001
-0.054561105 0.030171324 0.16500001
-0.05747116 0.018581297 0.17002568
-0.060377158 0.02436164 0.1703077
-0.057999413 0.022899048 0.17160428
-0.053894848 0.023706889 0.17030558
-0.060340423 0.025330473 0.17060001
-0.058300164 0.025903698 0.17162961
-0.052777354 0.026586749 0.17026314
