# .PCD v0.7 - Point Cloud Data file format
VERSION 0.7
FIELDS x y z
SIZE 4 4 4
TYPE F F F
COUNT 1 1 1
WIDTH 69
HEIGHT 1
VIEWPOINT 0 0 0 1 0 0 0
POINTS 69
DATA ascii
-0.050226521 -0.020439707 0.2074286
-0.048627649 -0.020641146 0.20847829
-0.080754176 -0.015383269 0.20600002
-0.077121519 -0.016028613 0.20559022
-0.072526872 -0.016386608 0.20600013
-0.06770134 -0.016619923 0.20643432
-0.062594965 -0.017010892 0.20674324
-0.057465572 -0.017121794 0.20687954
-0.052440122 -0.017263675 0.20731848
-0.048665017 -0.017380331 0.20843898
-0.081013307 -0.012527421 0.20698003
-0.077450119 -0.012473801 0.20691159
-0.072478615 -0.01256547 0.20753698
-0.067507744 -0.01253441 0.20800005
-0.062645875 -0.012922013 0.20815209
-0.057732016 -0.013383515 0.20858021
-0.05273205 -0.013739017 0.20887998
-0.049313806 -0.014198951 0.20900004
-0.080923915 -0.0092145912 0.20889477
-0.077530682 -0.0092511727 0.20893186
-0.072653949 -0.0095692603 0.20900007
-0.047529947 -0.017472658 0.21000002
-0.065661818 -0.010428474 0.21000001
-0.061814111 -0.010649803 0.21000002
-0.057480007 -0.011137084 0.21018183
-0.052504376 -0.011560771 0.21037808
-0.048273776 -0.012313125 0.21079083
-0.080939233 -0.0067119463 0.21099998
-0.077234469 -0.0067914906 0.21098123
-0.072330095 -0.007192472 0.21131402
-0.067398354 -0.0075087929 0.21161313
-0.062361911 -0.0075617158 0.21212217
-0.057470862 -0.0075917975 0.21269926
-0.052436769 -0.0078851981 0.2129429
-0.048464861 -0.0085329069 0.21312961
-0.08084511 -0.0027205995 0.21306454
-0.07780686 -0.002816329 0.21323533
-0.072402567 -0.0035777986 0.21353421
-0.067706563 -0.0039431648 0.21386446
-0.062632971 -0.0043928544 0.21400009
-0.058989562 -0.0046704458 0.21400002
-0.080922246 0.00043320307 0.214
-0.079438858 0.00019898466 0.21400002
-0.055372387 -0.0050989836 0.215
-0.052060578 -0.0053655696 0.21499997
-0.048577975 -0.0058883457 0.21507412
-0.076143846 -0.001002796 0.21500002
-0.072586827 -0.001117838 0.21500008
-0.067540482 -0.0014931248 0.21537498
-0.06251087 -0.001978151 0.21559405
-0.057402391 -0.0024587521 0.2158628
-0.052522801 -0.0025885405 0.21640788
-0.04860498 -0.0025314211 0.21711394
-0.081006624 0.0024596972 0.21609095
-0.077588908 0.0023548221 0.21644513
-0.072540112 0.0023646352 0.2170738
-0.067661554 0.0023591742 0.21746457
-0.062725276 0.0021671248 0.21794067
-0.057786789 0.0018596384 0.21836001
-0.052917488 0.0011591704 0.21867695
-0.0490047 0.00054689485 0.21900006
-0.080368683 0.0054532508 0.21875
-0.077696897 0.0054157455 0.21866664
-0.072843999 0.0053991182 0.21896665
-0.068357527 0.0051927543 0.21900003
-0.062149633 0.0047705662 0.22000001
-0.057109095 0.0042908425 0.21999994
-0.052040312 0.0035687147 0.22027695
-0.048330192 0.003077121 0.22106674
