# .PCD v0.7 - Point Cloud Data file format
VERSION 0.7
FIELDS x y z
SIZE 4 4 4
TYPE F F F
COUNT 1 1 1
WIDTH 69
HEIGHT 1
VIEWPOINT 0 0 0 1 0 0 0
POINTS 69
DATA ascii
-0.050996106 -0.020080188 0.20700002
-0.048608415 -0.020381669 0.20785001
-0.080977775 -0.015766907 0.20654547
-0.077340886 -0.016104106 0.20578134
-0.072526477 -0.016420199 0.20592116
-0.067610644 -0.016631292 0.20609273
-0.062652484 -0.01697631 0.20654778
-0.057412185 -0.017203158 0.20666197
-0.052464645 -0.017229483 0.20728967
-0.04851494 -0.017464623 0.20830001
-0.081110127 -0.012499646 0.20727654
-0.077494778 -0.012459542 0.20695212
-0.072459854 -0.012491905 0.20732661
-0.067586266 -0.01257507 0.20795012
-0.062663317 -0.012960424 0.20807511
-0.057712469 -0.013430717 0.20835954
-0.052750189 -0.013624839 0.20882456
-0.049131166 -0.014179146 0.20900005
-0.080865242 -0.0091962572 0.2086667
-0.077475116 -0.0092337662 0.20887235
-0.072730012 -0.0094434964 0.20900007
-0.068839632 -0.0097010499 0.20900002
-0.04752551 -0.015546378 0.2101429
-0.065491557 -0.010428475 0.21000001
-0.061973013 -0.010683853 0.21000002
-0.057616472 -0.01108919 0.21014003
-0.052469414 -0.01145535 0.21036373
-0.048263732 -0.012146863 0.21077505
-0.081213139 -0.0066579618 0.21092498
-0.077315807 -0.006706276 0.21092466
-0.072281398 -0.0070783198 0.2113158
-0.067337357 -0.0074426224 0.21155545
-0.062343098 -0.0075332932 0.21200718
-0.057444356 -0.0075825993 0.21263453
-0.05242002 -0.0077428515 0.21295355
-0.048495378 -0.0084403055 0.21312279
-0.081014313 -0.0028805344 0.21297298
-0.077601992 -0.0026536363 0.21324261
-0.072671779 -0.0032558499 0.21352266
-0.067687027 -0.0038172316 0.21377613
-0.062584266 -0.0042260531 0.21400011
-0.05861944 -0.00462418 0.21400002
-0.07940416 0.00012958659 0.21400002
-0.051799119 -0.00527329 0.215
-0.048447486 -0.005852547 0.2151852
-0.08151827 -0.00056703133 0.215
-0.076114796 -0.00031802297 0.21500003
-0.072225012 -0.00093399099 0.21500005
-0.067497954 -0.0013848295 0.21526867
-0.062472653 -0.0018271965 0.21570212
-0.057337761 -0.0023875847 0.21584164
-0.052541554 -0.0025797966 0.2163679
-0.0486423 -0.0025668768 0.21706331
-0.081038296 0.0022886086 0.21591182
-0.077572085 0.0023633826 0.21621884
-0.072566472 0.002352247 0.21689594
-0.067654505 0.0023272093 0.21741085
-0.062722906 0.0022000326 0.21784164
-0.057804454 0.001915434 0.21830486
-0.052877188 0.0012690579 0.21856521
-0.04861816 0.00084275421 0.21890905
-0.080523841 0.0056112623 0.21900001
-0.077847049 0.0056222291 0.21880552
-0.07259085 0.0054904111 0.21899997
-0.068161763 0.0051859254 0.21900004
-0.061679665 0.0047705667 0.22000003
-0.056934521 0.0043315291 0.21999997
-0.052149475 0.0036755917 0.22027121
-0.048269566 0.003293342 0.22092454
