# .PCD v0.7 - Point Cloud Data file format
VERSION 0.7
FIELDS x y z
SIZE 4 4 4
TYPE F F F
COUNT 1 1 1
WIDTH 152
HEIGHT 1
VIEWPOINT 0 0 0 1 0 0 0
POINTS 152
DATA ascii
-0.021326145 0.0082742376 0.16212162
-0.017486064 0.0081117665 0.1620122
-0.012504751 0.0079689585 0.16246395
-0.0074566668 0.0078192204 0.16299491
-0.0025054116 0.0076637068 0.16328062
0.002349139 0.0073194969 0.16394895
0.0066978293 0.0064792815 0.16399981
-0.021055577 0.012123562 0.16166255
-0.017549209 0.012381102 0.16218565
-0.012667845 0.012258429 0.16304165
-0.00773603 0.011496891 0.16358322
-0.0030125047 0.010815806 0.16398039
0.00023408362 0.01027753 0.164
-0.020695388 0.015743272 0.16360003
-0.017847449 0.015638588 0.1639152
-0.01438318 0.01509263 0.164
-0.021844272 0.0041774483 0.16824076
-0.017367132 0.0040710587 0.16806503
-0.012388286 0.0039223917 0.1677312
-0.0074957516 0.0038212477 0.16763267
-0.0025021536 0.0036806469 0.16724071
0.0025500273 0.003575091 0.16697583
0.0075465688 0.0034317863 0.16690616
0.012477421 0.0033632605 0.1666692
0.015260451 0.0042342087 0.16533336
-0.021793788 0.0059356964 0.1655636
-0.017542074 0.005665638 0.16549994
-0.012586292 0.0054904046 0.1653571
-0.0074667023 0.0053286869 0.16499998
-0.0025327513 0.0051497049 0.16500001
0.0033374478 0.0090178577 0.16499999
0.0080817258 0.0082676439 0.16511934
0.012461593 0.0073839645 0.16548556
0.015584566 0.0077744625 0.16631818
-0.011218175 0.014631006 0.16500001
-0.0072226389 0.013940332 0.16527776
-0.0023934781 0.013106308 0.16561966
0.0025292435 0.012537268 0.16623327
0.0076486985 0.012477965 0.16726181
0.012365641 0.012096771 0.16808641
0.015646227 0.011421799 0.16844445
-0.020736841 0.018283082 0.16548833
-0.017351458 0.018169418 0.16576076
-0.012502544 0.017484227 0.16629905
-0.0074928533 0.017500263 0.16733326
-0.0026423773 0.017162595 0.16801172
0.0021298856 0.016457614 0.16852169
0.0068604974 0.015754733 0.16896003
0.010342232 0.01519835 0.16900001
-0.020706188 0.022256123 0.16798006
-0.01760284 0.022211831 0.16818003
-0.012759631 0.02132101 0.16856433
-0.0084219165 0.020651435 0.16897373
-0.015260204 -4.3013151e-05 0.17400001
-0.0125234 -4.3013155e-05 0.17400001
-0.0074146967 -0.00022546691 0.17399998
-0.0022478935 -0.00031365518 0.17361288
0.0024313061 -0.00040767068 0.17359516
0.0075907395 -0.00056896813 0.17318515
0.011898994 -0.00055697828 0.17278045
-0.022266258 0.0017046529 0.17220531
-0.017579533 0.0016566222 0.17193902
-0.012584023 0.0014855902 0.17168272
-0.0075358651 0.0014019866 0.17138948
-0.0026853515 0.0012794266 0.1712988
0.002293864 0.0011537129 0.17105055
0.0074069016 0.0010302434 0.17078573
0.011999596 0.00092626497 0.17048077
0.013526041 0.014489186 0.17000003
0.015582332 0.013993552 0.17000002
-0.001873213 0.019721515 0.17000003
0.0027474859 0.018849202 0.17018574
0.0076207765 0.0180999 0.1706818
0.012486154 0.017597768 0.17148048
0.015801122 0.017358795 0.17237252
-0.02120789 0.02447854 0.16999999
-0.016649203 0.024629068 0.17000002
-0.012238248 0.023704875 0.17030001
-0.00738309 0.02296485 0.17072403
-0.0026187729 0.022623135 0.17158568
0.0024283819 0.022415712 0.17238143
0.0073628789 0.022101074 0.17309877
0.012081423 0.021317618 0.17367099
0.015483236 0.020422211 0.17400001
-0.020741265 0.027398508 0.17094117
-0.01750215 0.027441902 0.17127395
-0.012469639 0.027394788 0.17228892
-0.0075743021 0.02722778 0.17318958
-0.0028440848 0.026432561 0.17377619
0.0014647148 0.025573501 0.17399997
-0.020565534 0.031198606 0.1736522
-0.017601229 0.031169793 0.17357951
-0.013203372 0.030691747 0.17394993
-0.025337029 -0.0013281041 0.17814288
-0.022349233 -0.0014154091 0.17688085
-0.017549133 -0.0015408766 0.17688325
-0.01252078 -0.0017281036 0.17687854
-0.0074692238 -0.0020650022 0.17684399
-0.00252587 -0.0022492497 0.17697142
0.0025310512 -0.0026148097 0.17711367
0.0075385938 -0.0028150175 0.17702724
0.011541057 -0.0028357448 0.17691548
-0.024890022 0.00032374423 0.17500001
0.0083361166 0.024594977 0.17500004
0.012894595 0.023582743 0.17530875
0.015718484 0.022806561 0.1757223
-0.0059353206 0.029360283 0.17499998
-0.0021618183 0.028711561 0.17530006
0.0026349446 0.027813938 0.17559575
0.0074790162 0.027491979 0.17628673
0.012507398 0.027475387 0.17729723
0.015790377 0.027614411 0.17802273
-0.025870595 -0.0054711276 0.18376926
-0.022554981 -0.0054188757 0.18334216
-0.017467372 -0.0055716946 0.18327086
-0.012598216 -0.0056128697 0.1830385
-0.0076043508 -0.0058021494 0.18293658
-0.0026157671 -0.0059905518 0.18284614
0.0024042446 -0.0061680209 0.18273437
0.0075503965 -0.0062313587 0.18238358
0.010887424 -0.0063583073 0.18255559
-0.025857532 -0.003255459 0.18111114
-0.022721821 -0.0038952196 0.18088716
-0.017421007 -0.0040164483 0.1807736
-0.012436056 -0.0040247277 0.18067311
-0.007451246 -0.0042311251 0.18062501
-0.0027534529 -0.004470584 0.18041308
0.0023247954 -0.0047180909 0.18035488
0.0074449643 -0.0047788555 0.18000004
0.011392885 -0.0048260414 0.18000002
0.0042334157 -0.01035221 0.18900001
0.0077366815 -0.010372697 0.18885715
-0.026214937 -0.0076644584 0.18725532
-0.022488631 -0.0076893587 0.18687125
-0.017509757 -0.0078676539 0.18683161
-0.012483546 -0.0080953585 0.18706717
-0.00736083 -0.008382529 0.18713984
-0.0025292062 -0.0084592206 0.18695921
0.0023959076 -0.0086577674 0.18689135
0.0074095284 -0.0087229637 0.18648838
0.010529819 -0.0085613141 0.18571427
-0.025628835 -0.010008521 0.19000001
-0.021965805 -0.01034034 0.19052002
-0.017259574 -0.010755436 0.19085707
-0.012498354 -0.01110468 0.19073322
-0.007469397 -0.011573668 0.1912971
-0.0026183052 -0.011538884 0.19120008
0.0025451591 -0.011786096 0.19129542
0.0070871986 -0.011894651 0.19115622
-0.02675781 -0.0093444176 0.19000004
-0.022441139 -0.0096100578 0.19000004
-0.018257288 -0.0096100578 0.19000003
