# .PCD v0.7 - Point Cloud Data file format
VERSION 0.7
FIELDS x y z
SIZE 4 4 4
TYPE F F F
COUNT 1 1 1
WIDTH 76
HEIGHT 1
VIEWPOINT 0 0 0 1 0 0 0
POINTS 76
DATA ascii
0.07317704 -0.025875013 0.20900008
0.077162497 -0.025673738 0.2090001
0.082597524 -0.02565816 0.2084572
0.087299615 -0.025430977 0.20800002
0.090441152 -0.025168665 0.208
0.074609578 -0.024950786 0.20900001
0.077912092 -0.024036439 0.20899996
0.082762606 -0.023483485 0.20897685
0.087686591 -0.023060175 0.20844854
0.092485264 -0.02277983 0.20831257
0.095627874 -0.022554453 0.20830768
0.059837066 -0.025541306 0.21250001
0.062466763 -0.025732799 0.21074003
0.067776673 -0.025567824 0.21000002
0.07167501 -0.025410667 0.21000002
0.059657786 -0.022024807 0.21260005
0.062483165 -0.022541288 0.21130612
0.067512706 -0.022468502 0.21073017
0.072536178 -0.02241046 0.21039072
0.077367045 -0.021722887 0.21035242
0.082235664 -0.021152036 0.21020001
0.086947516 -0.02073166 0.21005408
0.092646591 -0.02051265 0.21000002
0.095615722 -0.020740896 0.21000002
0.059613246 -0.018606793 0.2138
0.06266249 -0.018366141 0.21328576
0.067632593 -0.018244663 0.21321304
0.072517484 -0.017808069 0.21302408
0.07747265 -0.017789962 0.21259423
0.082445323 -0.017498156 0.21226795
0.087518781 -0.017615484 0.21186799
0.092420861 -0.017586339 0.21161534
0.09545055 -0.01748102 0.21278571
0.079170421 -0.014790996 0.21400002
0.082677506 -0.01453075 0.21400008
0.087691769 -0.014252754 0.21392691
0.092389166 -0.0139475 0.21382764
0.095305465 -0.014444007 0.21400003
0.062346432 -0.015970085 0.21508339
0.06731718 -0.015862368 0.21500005
0.071774073 -0.015596068 0.21500002
0.077274397 -0.015557336 0.21500002
0.096331835 -0.015673539 0.215
0.062734835 -0.012652789 0.21750407
0.06752225 -0.012659551 0.21675877
0.072532661 -0.01257702 0.21633571
0.077432901 -0.012523046 0.21610497
0.082420103 -0.012084398 0.21590422
0.087515816 -0.011745065 0.21587488
0.09249305 -0.011453736 0.21568424
0.095760837 -0.012108815 0.21600002
0.063014299 -0.0093570631 0.21899998
0.067880951 -0.0091772741 0.2188974
0.07265421 -0.0087195607 0.2186826
0.077490717 -0.0086649302 0.21851529
0.082601286 -0.0084465332 0.2184936
0.087488316 -0.0082332147 0.21817206
0.092572868 -0.0081252279 0.21782787
0.09565983 -0.0077393665 0.21804546
0.060522083 -0.01021163 0.22000001
0.062680863 -0.0071062106 0.22090001
0.067360207 -0.0068652574 0.22094055
0.072335832 -0.0063347039 0.22090167
0.077500015 -0.0062158043 0.22066069
0.082359873 -0.006105897 0.22059564
0.087485753 -0.005821635 0.220394
0.092386752 -0.0058156913 0.22015145
0.095633425 -0.0055233245 0.22000003
0.063294254 -0.0038586971 0.22357447
0.067663439 -0.0034670383 0.22347985
0.072397515 -0.0031597575 0.22315796
0.077503867 -0.0029766399 0.22305511
0.082597233 -0.0026577439 0.22281154
0.087607861 -0.0026386387 0.22242284
0.092673354 -0.0026272063 0.22221144
0.096030764 -0.0025789987 0.22176088
