# .PCD v0.7 - Point Cloud Data file format
VERSION 0.7
FIELDS x y z
SIZE 4 4 4
TYPE F F F
COUNT 1 1 1
WIDTH 77
HEIGHT 1
VIEWPOINT 0 0 0 1 0 0 0
POINTS 77
DATA ascii
-0.0012159082 -0.064254284 0.27400002
0.00073891203 -0.064254284 0.27400002
0.0096244579 -0.064698562 0.27400002
0.010290874 -0.064698562 0.27400002
0.02905618 -0.065380581 0.27500001
-0.0058938018 -0.062114891 0.27580002
-0.002503732 -0.062071349 0.27505243
0.0026988275 -0.06219491 0.27506238
0.0075321784 -0.062233992 0.2751109
0.012425687 -0.062448833 0.27510214
0.017431114 -0.062494095 0.27521583
0.022607284 -0.062532105 0.27538624
0.027550584 -0.062510587 0.27549413
0.030830897 -0.06276115 0.2754167
-0.0058467477 -0.058596924 0.27828568
-0.0022749372 -0.057328999 0.27727863
0.0025551 -0.0572391 0.2771349
0.0075206356 -0.057173342 0.27735305
0.012388426 -0.057363462 0.27748242
0.017403444 -0.057310626 0.27762228
0.022408955 -0.057280429 0.27767876
0.027440958 -0.05741756 0.27758253
0.030896166 -0.057010256 0.27806893
-0.0014341297 -0.05456958 0.27900004
0.0022740534 -0.054322824 0.27900004
0.0075884298 -0.054569576 0.27900001
0.011006447 -0.054569583 0.27900001
0.019149369 -0.054569583 0.27900001
0.022240663 -0.054569576 0.27900001
0.028687146 -0.05456958 0.27900001
0.031099861 -0.053777911 0.27900004
-0.0063601718 -0.056313403 0.2810477
-0.0045416444 -0.05537051 0.28000003
-0.006104955 -0.052736074 0.28229633
-0.0025000931 -0.052340224 0.28103998
0.0026373167 -0.052066091 0.28088886
0.0075229816 -0.052240185 0.28084284
0.012741731 -0.052400142 0.28082067
0.017546978 -0.05243165 0.28105801
0.022592576 -0.052253433 0.28095892
0.02742615 -0.052419927 0.28117397
0.030761167 -0.05152889 0.2820909
-0.0054928088 -0.049157511 0.28380001
-0.0023857658 -0.048643719 0.28341681
0.0026396569 -0.048746031 0.28302228
0.0078344746 -0.048598573 0.2834256
0.012509574 -0.048655022 0.28346819
0.017342197 -0.048541918 0.28369245
0.022373443 -0.048507258 0.28354907
0.027228635 -0.048844572 0.28361362
0.030605752 -0.049376942 0.28400001
-0.0061370302 -0.047179695 0.28645834
-0.0026566081 -0.046063237 0.28548574
0.0025469984 -0.046306651 0.28536361
0.0073267389 -0.046160806 0.2854445
0.012466875 -0.045940805 0.2851111
0.017504863 -0.045957841 0.28521869
0.022525294 -0.045998331 0.28547227
0.027790433 -0.046300791 0.28551215
0.0311241 -0.047299035 0.28708002
-0.0059808516 -0.043945771 0.2883637
-0.0024009992 -0.042486224 0.28765374
0.002616511 -0.042368773 0.28767562
0.0074105621 -0.042470247 0.28759992
0.012387927 -0.042412415 0.28760475
0.017589286 -0.042367417 0.28781825
0.022558978 -0.042531066 0.28768498
0.027389504 -0.042518936 0.28787506
0.030958802 -0.04354031 0.28877276
-0.00039213427 -0.039655913 0.289
0.00031076436 -0.039655913 0.289
0.011744582 -0.039655913 0.289
0.023975018 -0.039655913 0.289
0.026083713 -0.039655916 0.289
-0.0062628454 -0.041364927 0.29077777
0.029308774 -0.040576831 0.29000002
0.031403378 -0.041300952 0.29021427
