# .PCD v0.7 - Point Cloud Data file format
VERSION 0.7
FIELDS x y z
SIZE 4 4 4
TYPE F F F
COUNT 1 1 1
WIDTH 159
HEIGHT 1
VIEWPOINT 0 0 0 1 0 0 0
POINTS 159
DATA ascii
0.0027210852 -0.025508137 0.21300001
0.0081946887 -0.025684001 0.21241175
0.012134542 -0.026250575 0.21368895
-0.0003769121 -0.023208171 0.21362501
0.0026261329 -0.022567708 0.21174784
0.0075635584 -0.022415547 0.2103657
0.011816477 -0.022996133 0.21297826
0.0032247105 -0.017916571 0.21274668
0.0074337441 -0.01770466 0.21206892
0.010751491 -0.019005831 0.2138
0.0043223868 -0.014228898 0.21390001
0.0063844039 -0.013843341 0.21375617
0.019765859 -0.030050676 0.21900001
0.020476054 -0.030050676 0.21900001
-0.0053534354 -0.027086388 0.21900001
-0.0025436624 -0.026824573 0.21714289
0.00063799485 -0.026520178 0.21508335
0.014534157 -0.026781155 0.21514288
0.017693495 -0.027113473 0.21717472
0.020594422 -0.028245596 0.21900003
-0.005090971 -0.024546664 0.21900001
-0.0022437412 -0.022845766 0.21688613
0.00023119149 -0.0204379 0.215
0.013975516 -0.022074016 0.2155218
0.016416356 -0.022983791 0.21766199
-0.0010527486 -0.018019771 0.21782972
0.0010472776 -0.017096302 0.21592863
0.009469403 -0.01573164 0.215
0.012667107 -0.017510463 0.21687958
0.015422448 -0.019427137 0.21866667
-0.00019062437 -0.014213326 0.21900001
0.0026878186 -0.012525496 0.21679343
0.0079110377 -0.01203779 0.21564509
0.011134741 -0.013046531 0.21793653
0.004027084 -0.0080234641 0.21828204
0.0071991882 -0.0078761596 0.21794054
0.010533323 -0.0098101161 0.21900001
0.0059170537 -0.0048387507 0.21900003
-0.010594742 -0.030494628 0.22400001
-0.0091107292 -0.03047283 0.22260003
0.023232941 -0.030845238 0.2214445
0.026087234 -0.031408168 0.22360715
-0.010618955 -0.028158009 0.22400001
-0.007871734 -0.027585266 0.22136666
0.01973721 -0.025312735 0.22000001
0.02270413 -0.027400604 0.22165135
0.025578635 -0.028797625 0.2238182
-0.0066931956 -0.02279406 0.22235131
-0.0041948087 -0.021289688 0.22076194
0.01863401 -0.021924332 0.22112122
0.021284897 -0.023018317 0.22314283
-0.0054283948 -0.019183274 0.22375
-0.0033764865 -0.017040053 0.22185716
0.014614898 -0.015931848 0.22018184
0.01724902 -0.017668704 0.22217347
0.020338204 -0.019598484 0.22400002
-0.0016223496 -0.012702832 0.22216921
0.00072363921 -0.010914476 0.22045457
0.013433961 -0.012146424 0.22125353
0.015880205 -0.013011155 0.2234
-0.00058650039 -0.0082890699 0.2236
0.0018233041 -0.0073050619 0.22157574
0.0091588032 -0.0064497986 0.22042306
0.011996472 -0.0079490002 0.22242229
0.0032161542 -0.0029890046 0.22259738
0.0075393394 -0.002589517 0.22187066
0.01072411 -0.0037638871 0.22356001
0.0045333896 0.00074069685 0.22375
0.0069022714 0.0010525351 0.22365791
0.031407285 -0.03556525 0.22700003
-0.016107235 -0.032178391 0.22871433
-0.013057756 -0.031775109 0.22650003
0.028502658 -0.032279842 0.22571212
0.031625606 -0.032765679 0.22785337
-0.015497386 -0.029343506 0.22900002
-0.012692817 -0.027445164 0.22719738
-0.0099731926 -0.025401589 0.22500001
0.024502892 -0.025401589 0.22500001
0.02759517 -0.027390433 0.22704171
0.030778745 -0.029503176 0.22880001
-0.011219117 -0.02318128 0.2280257
-0.008814265 -0.021373833 0.22616665
0.023427449 -0.021941578 0.22623883
0.026156396 -0.023170413 0.22827913
-0.010521804 -0.019540867 0.22900002
-0.0071568973 -0.017462634 0.22709863
-0.0048656235 -0.015186453 0.22500001
0.01909711 -0.016049827 0.22534998
0.021910572 -0.017570985 0.22729419
-0.0059764143 -0.012533356 0.22814819
-0.0040738732 -0.012030354 0.22592679
0.018137975 -0.012154318 0.22645782
0.020616669 -0.013524956 0.22842109
-0.0054162638 -0.0094226152 0.22900002
-0.0027714286 -0.0073689879 0.22701474
0.014113041 -0.0065317815 0.22574997
0.016799774 -0.0077600968 0.22758666
-0.0011750587 -0.0032231081 0.22786492
0.0010213513 -0.0018229957 0.22593547
0.0097274277 -0.00022857863 0.22500001
0.012644515 -0.0023254526 0.22656992
0.015475927 -0.0035703513 0.22877781
-0.020768208 -0.035447832 0.23400001
-0.01865536 -0.03610694 0.23337501
-0.02079499 -0.032733865 0.23399998
-0.018510675 -0.032207977 0.23183632
0.032909174 -0.030724376 0.2300909
-0.016718032 -0.027592678 0.23166123
-0.014483552 -0.025872834 0.23
0.029460449 -0.026028221 0.23
0.031955369 -0.027292183 0.23153946
-0.015693404 -0.023726381 0.23366666
-0.013377752 -0.022321904 0.23156598
0.028215474 -0.022260441 0.23132429
0.031504717 -0.023559621 0.23309524
-0.011796908 -0.018002464 0.23248278
-0.0093103787 -0.016308157 0.23056524
0.024037473 -0.01649867 0.23061764
0.026684722 -0.01789389 0.23262689
-0.010605184 -0.01403815 0.23355556
-0.0082599279 -0.012321248 0.23194541
0.022820864 -0.01215866 0.23187497
0.025591467 -0.013886513 0.23383334
-0.0065470836 -0.0080932351 0.23168002
-0.0046882206 -0.0061827726 0.23035717
0.018855011 -0.0065024234 0.23087497
0.021290625 -0.0079497173 0.23280774
-0.020823034 -0.027454391 0.23708573
-0.018854771 -0.026449135 0.23568189
-0.020789184 -0.023827219 0.2388889
-0.017601719 -0.022514615 0.23628791
-0.014988934 -0.020433895 0.23500001
0.029592838 -0.020052856 0.23500001
0.031706177 -0.021329539 0.23575868
-0.016214082 -0.018079637 0.23754053
-0.013925076 -0.016993364 0.23590328
0.028841034 -0.017072331 0.23570006
0.031249853 -0.018072823 0.23732615
-0.01537324 -0.014839633 0.23900001
-0.012310719 -0.012503472 0.23700003
-0.0096543636 -0.010526839 0.23500001
0.024258267 -0.010145796 0.23500001
0.027472625 -0.012437254 0.23690011
0.030502994 -0.014397536 0.23871428
-0.010894077 -0.0078570414 0.23828571
-0.0086058583 -0.0069843614 0.23620518
0.023518668 -0.0068345508 0.23603636
0.026132509 -0.0080241533 0.23808329
-0.020778513 -0.021260235 0.24121056
-0.019433901 -0.020910515 0.2405
-0.020688238 -0.018599449 0.24240005
-0.018358985 -0.016891468 0.24139024
0.032323252 -0.015884044 0.24153337
-0.016882211 -0.012765923 0.24264917
-0.014327772 -0.011191189 0.24041668
0.029502153 -0.011006449 0.24018185
0.031932563 -0.012382552 0.24195383
-0.015833462 -0.0091568818 0.24372728
-0.01895423 -0.011938048 0.2451176
