# .PCD v0.7 - Point Cloud Data file format
VERSION 0.7
FIELDS x y z
SIZE 4 4 4
TYPE F F F
COUNT 1 1 1
WIDTH 159
HEIGHT 1
VIEWPOINT 0 0 0 1 0 0 0
POINTS 159
DATA ascii
0.0029028282 0.0092041316 0.15895723
0.0062353853 0.0090621114 0.15879163
0.0032517903 0.011204072 0.15892965
0.0060141869 0.011550546 0.15845904
-0.015983226 0.0078649959 0.16399989
-0.012391764 0.0079040471 0.1632784
-0.0074264179 0.0077800504 0.16223593
-0.0024523316 0.0076077892 0.16156992
0.002281724 0.0069369837 0.16171327
0.0068332809 0.006502023 0.16223356
-0.011751815 0.010971487 0.16363157
-0.0072367429 0.012180218 0.162907
-0.0024545039 0.012365697 0.16147734
0.0019479066 0.013189865 0.16051763
0.006182631 0.014078369 0.16089195
-0.0054838462 0.01530759 0.16400002
-0.0020683436 0.016251242 0.16362356
0.0025512136 0.017438125 0.16277884
0.0061122603 0.017397434 0.16227774
0.0039958796 0.020488121 0.16400002
0.0059402883 0.020892641 0.16400003
-0.027229412 0.0042295409 0.16820963
-0.022491006 0.0041850526 0.16804227
-0.017376641 0.004071109 0.16784611
-0.012387881 0.0039456473 0.16763733
-0.0074222884 0.0037636741 0.16752943
-0.0025704489 0.003639261 0.16741079
0.0025271925 0.0036155903 0.16707432
0.0074257851 0.0034223134 0.16718186
0.010342232 0.0024391736 0.16900001
-0.030178109 0.0076102582 0.16833334
-0.027459105 0.0074756439 0.16745293
-0.022404188 0.007448338 0.16607165
-0.018049074 0.0072964323 0.16516317
-0.012835598 0.0054234983 0.16529407
-0.0075502279 0.0053227223 0.16499999
-0.0028686065 0.0052107689 0.16499999
0.0017926585 0.0051497049 0.16500001
0.0094053792 0.0051497049 0.16500001
-0.026786765 0.010996212 0.16878185
-0.022240294 0.012056724 0.16812976
-0.017572429 0.012443437 0.16688398
-0.012839545 0.013188777 0.16574258
-0.0089943064 0.014319851 0.16508
-0.020138014 0.01519835 0.16900001
-0.016804041 0.016028101 0.16876119
-0.012295161 0.017216086 0.1679697
-0.007501171 0.017551133 0.1665085
-0.0030158705 0.018521892 0.16540006
0.00046619948 0.019567743 0.16500002
0.0072138393 0.019567743 0.16500001
-0.010639518 0.020231135 0.16900001
-0.006962169 0.021255048 0.16861728
-0.0024846517 0.022368899 0.16766468
0.0023300669 0.022700448 0.16616954
0.0065296176 0.023140313 0.16657352
-0.00099925476 0.025497427 0.16899998
0.0028414635 0.02679617 0.1683539
0.0060638366 0.027434712 0.16815493
0.0063845254 0.030202195 0.16900001
-0.015625112 -4.3013155e-05 0.17400001
-0.012166424 -0.00018580303 0.17400002
-0.0072129257 -0.00017568431 0.17390911
-0.0024259386 -0.00039823333 0.17365785
0.0024856734 -0.00042454002 0.17355809
0.0075183217 -0.00058969104 0.17335708
0.010924741 -0.00055971497 0.17321056
-0.026639426 0.0018865822 0.17181249
-0.022493912 0.0017615268 0.17195202
-0.017579943 0.0016530177 0.17172809
-0.012620175 0.0015134686 0.17157552
-0.0076347012 0.0013558961 0.17139134
-0.0026026659 0.0012225749 0.17130117
0.0023430793 0.0011881547 0.17098781
0.0074125477 0.0010307842 0.17089997
0.010475919 0.0010742424 0.17117649
-0.030477375 0.0098216608 0.17
-0.030375274 0.011962011 0.17064707
-0.027865406 0.013112931 0.17049137
-0.023552565 0.01431508 0.17000005
-0.030172175 0.016569465 0.17330001
-0.027366986 0.017199885 0.17282289
-0.022472743 0.017588614 0.17158967
-0.017888742 0.018233435 0.17062609
-0.013920867 0.01943686 0.17000003
-0.025705675 0.020163735 0.17400001
-0.022065857 0.021158719 0.17367156
-0.017284259 0.022134002 0.17286216
-0.012572239 0.022613585 0.17157739
-0.0080403564 0.023403209 0.17056116
-0.0044119009 0.024716223 0.16999999
0.008442577 0.02437951 0.17
-0.015442656 0.025135599 0.17400001
-0.011883534 0.026402755 0.17366229
-0.0074147177 0.027417982 0.17270713
-0.0027032758 0.027660511 0.17101283
0.0017762801 0.02904235 0.17018183
0.008442577 0.025270805 0.17
-0.0056476411 0.030731805 0.17388891
-0.0022372711 0.031731766 0.17334911
0.005874136 0.032629427 0.17137703
-0.025871284 -0.0011397611 0.17670591
-0.02243349 -0.0014165911 0.17687629
-0.017490508 -0.0016389301 0.17694277
-0.012554124 -0.0019102542 0.17707846
-0.0075129224 -0.0019794127 0.17687829
-0.0024762207 -0.0023690208 0.1771414
0.0024552527 -0.0024724612 0.17682876
0.0075196004 -0.0028240702 0.17711438
0.011287984 -0.0026991046 0.17727271
-0.030162731 0.019252731 0.17525001
-0.029000474 0.019591486 0.175
-0.030131789 0.022172583 0.17676926
-0.027479379 0.022605224 0.17613205
-0.022773031 0.023439586 0.17554943
-0.018681528 0.024454299 0.175
-0.027462849 0.02694108 0.17831062
-0.022419082 0.027408442 0.17764981
-0.017576788 0.027509622 0.17623082
-0.013049286 0.028427543 0.17533337
-0.0094146673 0.029561779 0.17500001
-0.025012443 -0.0058336719 0.18400002
-0.022394361 -0.0055427672 0.18342224
-0.017601827 -0.005608351 0.18325493
-0.012604279 -0.005615307 0.18311544
-0.007589303 -0.0057929074 0.18306896
-0.0026387805 -0.0060480204 0.18299998
0.0023664015 -0.0061781849 0.18269229
0.0075586764 -0.006249872 0.18249997
0.012039532 -0.0062684682 0.18279034
-0.025299493 -0.0037165373 0.18100002
-0.022634499 -0.0039069224 0.18108208
-0.017612295 -0.0040911958 0.1809362
-0.012571436 -0.0040659476 0.18095921
-0.0073745316 -0.0042669051 0.18064292
-0.0027582487 -0.0044867485 0.18048893
0.0024661261 -0.0045738993 0.18031701
0.0075304792 -0.0047782683 0.1802963
0.012172404 -0.0044570416 0.18071431
-0.0017969923 -0.010522081 0.18900004
0.0023225588 -0.010698285 0.18848656
0.0071115014 -0.010404644 0.18768419
-0.022268558 -0.007693877 0.18675612
-0.017475247 -0.0079732658 0.18709372
-0.012467486 -0.0080851959 0.18682694
-0.0073902309 -0.0083156796 0.18698977
-0.0024870955 -0.0085106902 0.18693613
0.0024185772 -0.0086623682 0.18664828
0.0074008745 -0.0087330444 0.18641183
0.012388013 -0.0081970105 0.18554714
-0.021396255 -0.011114825 0.19206977
-0.017433394 -0.011758382 0.19255455
-0.012696716 -0.011688598 0.1920096
-0.0078435568 -0.011144791 0.19067998
-0.0037731954 -0.011104293 0.19000004
-0.022015167 -0.0095752701 0.19010003
-0.018257288 -0.0096100587 0.19000001
-0.021075502 -0.013518589 0.1956111
-0.019269377 -0.013788856 0.19500004
