# .PCD v0.7 - Point Cloud Data file format
VERSION 0.7
FIELDS x y z
SIZE 4 4 4
TYPE F F F
COUNT 1 1 1
WIDTH 212
HEIGHT 1
VIEWPOINT 0 0 0 1 0 0 0
POINTS 212
DATA ascii
-0.011726502 0.0096887341 0.15899998
-0.0099432711 0.0099641904 0.15900001
-0.011846376 0.012029951 0.1590002
-0.0097677717 0.011842039 0.15899999
-0.017283076 0.008208272 0.16305827
-0.012471404 0.0078791268 0.16184263
-0.0073753055 0.0078836465 0.16237637
-0.0041839033 0.0079863556 0.16389588
-0.016396718 0.011913653 0.16275822
-0.013406264 0.013166924 0.16045563
-0.0075959829 0.012265673 0.16173622
-0.004666999 0.010535482 0.164
-0.01543998 0.015633726 0.16390002
-0.012150121 0.017232845 0.16203994
-0.0086890049 0.01718235 0.1628543
-0.011277946 0.020840457 0.16385297
-0.0096445112 0.020633819 0.16400002
-0.025241682 0.0046365876 0.16900001
-0.022258401 0.0042345561 0.16843748
-0.017375343 0.0041099372 0.16808107
-0.012487773 0.0040175067 0.1677442
-0.0074018124 0.0038497541 0.16756845
-0.0024877505 0.0037262351 0.16756184
0.0010271673 0.0037923828 0.16870008
-0.025247592 0.0061901361 0.16900001
-0.022209277 0.0073005911 0.16698778
-0.017737249 0.0059264395 0.16547687
-0.012723618 0.0055897678 0.16551013
-0.0077441805 0.0054576001 0.16523682
-0.002064354 0.0073353443 0.16614394
0.00070264121 0.0068380991 0.16862752
-0.021049581 0.011910925 0.16804764
-0.01857342 0.013008976 0.1659625
-0.0055508632 0.013890732 0.16523997
-0.002883066 0.012243419 0.16731083
-0.020138014 0.01519835 0.16900001
-0.017206371 0.017285706 0.16730082
-0.014426172 0.019027919 0.16531578
-0.0063774548 0.01775028 0.16648002
-0.0042293561 0.016455458 0.16840914
-0.015824912 0.021390909 0.16848277
-0.012694747 0.022822399 0.16614699
-0.0080339015 0.022387397 0.16703573
-0.01179575 0.027085429 0.16810574
-0.0089979907 0.026808484 0.1684483
-0.016902287 -4.3013159e-05 0.17400001
-0.0125234 -4.3013155e-05 0.17400001
-0.0071738577 -0.00020357243 0.17399999
-0.0024812971 -0.00022534332 0.1735
0.0026445405 -0.00035851522 0.17362157
0.0064630061 -0.00037748081 0.17387502
-0.030604998 0.0027207653 0.17367643
-0.027411984 0.0025966903 0.17212747
-0.022535466 0.0018158703 0.17195451
-0.017535109 0.0016942365 0.17188798
-0.012517638 0.0015702703 0.17173874
-0.0076362379 0.0014505015 0.17154083
-0.0027005363 0.0013184979 0.17124444
0.0028384561 0.0021955338 0.17102084
0.0063803061 0.0022366887 0.17315465
-0.030221403 0.0050656907 0.17400001
-0.027291415 0.0072763483 0.17234236
-0.024345478 0.0092759654 0.17033331
0.0029280363 0.0076993722 0.17170234
0.0055163722 0.0060676862 0.17380954
-0.025813865 0.011433383 0.17334372
-0.023360526 0.012858462 0.17154168
-0.0009453966 0.013650713 0.17040004
0.0013609969 0.012231356 0.17245099
-0.021735664 0.01713608 0.17239796
-0.01911182 0.018641703 0.17041382
-0.0021734585 0.01771877 0.17171329
0.00050322112 0.016268613 0.1736
-0.020564299 0.021025056 0.17380004
-0.017758612 0.022644015 0.17162608
-0.014909393 0.024736028 0.17
-0.0058066589 0.023101488 0.17070214
-0.0035999299 0.022048227 0.17278218
-0.0162901 0.027205791 0.17295708
-0.013915597 0.028267261 0.17072341
-0.0069442191 0.027693147 0.17171799
-0.0044172439 0.025604764 0.17400001
-0.015488271 0.030654825 0.17400001
-0.012250648 0.032305613 0.17189442
-0.0083578313 0.032225594 0.17246558
0.012230536 -0.0053748335 0.17900001
-0.036274172 -0.0012573302 0.17854546
-0.032421332 -0.0013775134 0.17756729
-0.027496271 -0.0014008413 0.17725676
-0.022483733 -0.0015040826 0.17700009
-0.017593762 -0.0016701954 0.17696376
-0.012437562 -0.001812963 0.17693041
-0.0075112488 -0.002020675 0.17702706
-0.0024645668 -0.0022118671 0.17698219
0.0024111294 -0.0023922056 0.17698286
0.0076911789 -0.0023589286 0.1767209
0.012041606 -0.0024690537 0.17816672
-0.03608476 0.0013610154 0.17858329
-0.032890737 0.0023911614 0.17612502
-0.028193064 0.00032374423 0.17500001
0.0087510208 0.0029017725 0.1759584
0.011101193 0.0019081039 0.17812502
-0.03179593 0.0070637669 0.17747875
-0.029121969 0.0087673692 0.17557696
0.0046276236 0.0094988598 0.17500003
0.0073968163 0.0073844003 0.17700805
0.010203412 0.0053989533 0.17900001
-0.030567927 0.010605435 0.17880002
-0.027848102 0.01267782 0.17674492
0.0038513937 0.012851769 0.17613755
0.0061494969 0.01181089 0.17828071
-0.026332753 0.01689766 0.17778462
-0.023904771 0.018231906 0.17572924
-0.00042305718 0.019652653 0.17500001
0.0023606289 0.017441753 0.1769328
-0.025208673 0.020602381 0.17900001
-0.022362594 0.022432374 0.17669728
-0.0195261 0.02438592 0.1751667
-0.0013874595 0.023015071 0.17597373
0.0010479285 0.02190062 0.17796971
-0.021095688 0.026947973 0.17817311
-0.018683942 0.027730411 0.17610531
-0.0052576987 0.028872486 0.17508334
-0.0027334525 0.027387938 0.17707816
6.779714e-05 0.025294796 0.17900001
-0.03071953 -0.0054846336 0.18335716
-0.027476167 -0.0055901399 0.1834694
-0.02252402 -0.0056065959 0.18334
-0.017586745 -0.0056122588 0.18301924
-0.012537352 -0.0057835556 0.18312697
-0.0077339364 -0.0058677797 0.183
-0.0025723786 -0.0060094357 0.18286796
0.0023686797 -0.0061829626 0.18283075
0.0074014948 -0.0064437082 0.18228091
0.010863008 -0.0058233612 0.18107145
-0.032166757 -0.0037564998 0.18093115
-0.027427431 -0.0038838706 0.18114759
-0.022547344 -0.003994972 0.18090746
-0.017456796 -0.0040102918 0.18066671
-0.012626496 -0.0041048024 0.1809348
-0.0073331445 -0.0042965943 0.18054548
-0.0027533441 -0.0045007602 0.18045458
0.0024661266 -0.0045738984 0.18031713
0.0073535158 -0.0047219652 0.18033333
0.013396904 -0.0017168216 0.18033336
-0.036968518 0.0035154803 0.18092857
0.013135307 0.0028540324 0.18125004
0.015036803 0.0022574537 0.18300001
-0.03644276 0.0073647359 0.18323374
-0.033799414 0.0084776478 0.18087181
0.0093951151 0.008764253 0.18055557
0.011843662 0.0073296386 0.18236271
-0.035141766 0.010662659 0.18400002
-0.032224722 0.012407319 0.18177323
-0.029591778 0.014192286 0.18000001
0.0082731126 0.012774488 0.18146393
0.010744731 0.011605312 0.18353337
-0.03105171 0.016669676 0.18325645
-0.028447943 0.017921727 0.18089706
0.0042698593 0.018477079 0.1802308
0.0067673638 0.017223665 0.18235846
-0.027026409 0.022314431 0.1820714
-0.024447713 0.023740381 0.18040003
0.003268356 0.022824429 0.18143961
0.0056653591 0.021304037 0.18353574
-0.0050811577 -0.01035221 0.18900001
-0.0020341035 -0.010476074 0.18900004
0.0012775224 -0.010485639 0.18806668
-0.026621869 -0.0074763736 0.18635185
-0.022496969 -0.0080222627 0.18718748
-0.017560132 -0.0079869041 0.18700007
-0.012459578 -0.0082451608 0.18703339
-0.0073269717 -0.0084308283 0.18707147
-0.0025257114 -0.0084785167 0.18687508
0.0023606156 -0.0086116781 0.18615732
0.0053562447 -0.0082902275 0.185
0.014659036 0.003844043 0.18550003
0.015299742 0.0037804656 0.18620001
-0.038136873 0.0083515272 0.18510525
0.014101184 0.008138014 0.18557496
0.015283308 0.006975343 0.18600002
-0.036731906 0.012427078 0.18663101
-0.0343071 0.013723177 0.18522221
0.012746292 0.012714717 0.18646668
0.015133448 0.012438775 0.18900001
-0.035915066 0.016120963 0.18825001
-0.033038661 0.017786428 0.18619281
0.0090728514 0.018178303 0.18577081
0.011376558 0.017051592 0.18766196
-0.031614579 0.022271484 0.18739747
-0.02922955 0.023391724 0.18542305
0.0077174348 0.022629498 0.18684961
0.010585072 0.020716472 0.18877779
-0.021733612 -0.011271537 0.19146976
-0.017583987 -0.011544772 0.19209893
-0.012608474 -0.011525411 0.19214591
-0.0077511831 -0.01135818 0.19155259
-0.0029816278 -0.011640026 0.19085422
-0.022042681 -0.0096100587 0.19000003
-0.016065747 -0.0096100587 0.19000003
-0.01467113 -0.0096100587 0.19000001
-0.03828086 0.014535572 0.19050002
0.014554673 0.014635189 0.19050002
-0.036765542 0.018074904 0.19033961
-0.034893077 0.019577291 0.19000001
0.013751471 0.017830243 0.19109857
-0.015134429 -0.015257122 0.19600001
-0.01331914 -0.015296042 0.19650003
-0.0093797985 -0.015257123 0.19600002
-0.016005065 -0.014095404 0.19568184
-0.012420659 -0.014087052 0.19584449
-0.0080122091 -0.013932253 0.19568087
