# .PCD v0.7 - Point Cloud Data file format
VERSION 0.7
FIELDS x y z
SIZE 4 4 4
TYPE F F F
COUNT 1 1 1
WIDTH 87
HEIGHT 1
VIEWPOINT 0 0 0 1 0 0 0
POINTS 87
DATA ascii
-0.067892373 -0.020180056 0.20872729
-0.071074761 -0.017567303 0.20800009
-0.068127513 -0.017495994 0.20877106
-0.07039009 -0.013919807 0.20874999
-0.06888482 -0.014106529 0.20900005
-0.06532459 -0.020805193 0.21030772
-0.061874803 -0.021666924 0.21220459
-0.05890571 -0.022546232 0.21400009
-0.065713085 -0.017174313 0.21064523
-0.062610641 -0.017860087 0.21248923
-0.059660405 -0.019579461 0.21400002
-0.070594892 -0.011633938 0.2107143
-0.067125298 -0.012367844 0.21171814
-0.063749194 -0.013607794 0.21355815
-0.070920624 -0.0076453551 0.21265954
-0.068604179 -0.008104559 0.21310125
-0.070568122 -0.0045721293 0.21320002
-0.069871381 -0.0047172299 0.21350002
-0.055462316 -0.02543701 0.21637499
-0.052438732 -0.026257897 0.21833898
-0.056620307 -0.022383554 0.21588984
-0.053662583 -0.022930633 0.21841384
-0.060807697 -0.016483596 0.21535486
-0.057797804 -0.017813854 0.21705221
-0.054662596 -0.01939775 0.21900001
-0.062157668 -0.012213264 0.21667998
-0.059190981 -0.013402997 0.21838462
-0.0668502 -0.0069803824 0.2160947
-0.06382893 -0.0083123622 0.21776247
-0.070795871 -0.0023199681 0.21621217
-0.067991897 -0.002881082 0.21757028
-0.064747363 -0.004661202 0.21900001
-0.070553936 0.0016937075 0.2184
-0.069257066 0.00081313017 0.21839997
-0.045698121 -0.03033966 0.22375
-0.044070121 -0.030401504 0.22400001
-0.050291631 -0.026578741 0.22000001
-0.047356464 -0.027177194 0.22234674
-0.044433326 -0.028343886 0.22399999
-0.051333703 -0.021953247 0.22077647
-0.048444778 -0.023034239 0.22289777
-0.055841174 -0.01638601 0.22033337
-0.052597743 -0.017509662 0.22213778
-0.049719688 -0.019152071 0.22360002
-0.056997221 -0.012355359 0.22154833
-0.053784698 -0.013131596 0.22356601
-0.061793976 -0.0069839293 0.22085102
-0.058516476 -0.0082968939 0.22274391
-0.065913267 -0.0014786337 0.22043242
-0.062707022 -0.0028014502 0.22252211
-0.059687927 -0.0042228154 0.22400001
-0.070584886 0.0038969549 0.22009094
-0.067160279 0.0025522774 0.22146159
-0.064009294 0.0011890423 0.22370969
-0.042515695 -0.030363226 0.22500001
-0.045726165 -0.025219176 0.22500001
-0.042930834 -0.026888201 0.22558072
-0.046591904 -0.021561926 0.22572309
-0.043444555 -0.022639882 0.2271613
-0.050712511 -0.016032323 0.22546153
-0.047781259 -0.01746301 0.22721641
-0.044192597 -0.018986076 0.22875001
-0.055576473 -0.010078887 0.22500001
-0.051737707 -0.011992766 0.22617176
-0.049022898 -0.013157033 0.2283556
-0.056658652 -0.0068607042 0.22568575
-0.053436395 -0.0076556415 0.22745457
-0.060772117 -0.00091630104 0.22541174
-0.057758924 -0.0026119254 0.22728261
-0.054276638 -0.0040337425 0.22875002
-0.062003903 0.0027185499 0.22617503
-0.041964915 -0.021733128 0.23038888
-0.045863301 -0.01565931 0.23016667
-0.043056067 -0.017244259 0.23141862
-0.050098702 -0.010302862 0.23
-0.046842109 -0.011944586 0.23110418
-0.04368097 -0.013032096 0.23290326
-0.051247135 -0.0069464627 0.23088886
-0.048373286 -0.0077621974 0.23294447
-0.055512067 -0.00073101569 0.23011112
-0.052567165 -0.0024076256 0.23205596
-0.049639255 -0.0041982704 0.23388889
-0.041890409 -0.015785201 0.23500001
-0.045091152 -0.010145796 0.23500001
-0.042330168 -0.011753617 0.23550001
-0.046116989 -0.0066876933 0.23537996
-0.043385398 -0.007500445 0.23697233
