# .PCD v0.7 - Point Cloud Data file format
VERSION 0.7
FIELDS x y z
SIZE 4 4 4
TYPE F F F
COUNT 1 1 1
WIDTH 171
HEIGHT 1
VIEWPOINT 0 0 0 1 0 0 0
POINTS 171
DATA ascii
-0.002008324 0.0092645185 0.15880959
0.0022333963 0.0091319727 0.15829767
0.0050619682 0.0099641904 0.15900001
-0.0018308538 0.011808066 0.15862733
0.0020228224 0.012372463 0.15756024
0.0050301319 0.010232876 0.15800001
0.0024924998 0.01587316 0.15897723
0.0050619682 0.015966289 0.15900001
0.0057288678 0.026303235 0.15900001
-0.015529631 0.0076693511 0.16400002
-0.012416511 0.0079889977 0.16295834
-0.0074476521 0.007748859 0.16176331
-0.0027361051 0.007104455 0.16183434
0.0025288488 0.0068275509 0.1619646
0.0060662595 0.0070894798 0.16248612
-0.011594736 0.011372345 0.16351308
-0.007431672 0.01238761 0.16179594
-0.0035517239 0.013287663 0.1604138
-0.0062429463 0.016408576 0.16348568
-0.0024632639 0.017455846 0.16222802
0.0015965912 0.018094538 0.16061816
-0.0013597853 0.020987198 0.16381823
0.001949448 0.022085184 0.16307808
0.0048177363 0.029347584 0.162
0.0062631872 0.027781568 0.16183931
0.0048593706 0.031145349 0.16340001
0.0055780346 0.030718204 0.16345456
-0.026745928 0.0042621177 0.16884451
-0.022453863 0.0041702799 0.16801392
-0.017510708 0.0040024985 0.16787949
-0.012439816 0.0038762174 0.16766322
-0.0074956878 0.0038212074 0.16763264
-0.0024899144 0.0037078941 0.1673585
0.002552018 0.003577885 0.16709684
0.007467424 0.003417606 0.16754098
0.010321833 0.0027873865 0.16866669
-0.026587361 0.0065609529 0.16872601
-0.02247921 0.0074283089 0.16737419
-0.017811134 0.0074302694 0.16549718
-0.012533551 0.005498576 0.16534878
-0.0076776356 0.0053816647 0.16515622
-0.0026826989 0.0051727742 0.16500001
0.0024847244 0.0051497049 0.16500001
0.0073321024 0.0053816144 0.16542104
-0.021353947 0.011159453 0.16861823
-0.017421236 0.012331108 0.16726504
-0.013125564 0.013248395 0.16557528
-0.0097129326 0.014752117 0.16500001
-0.015969843 0.015850483 0.16876669
-0.012279824 0.017258067 0.16766864
-0.0080771437 0.017981898 0.16584304
-0.0047819642 0.019683087 0.16500001
-0.010840937 0.020606497 0.16894443
-0.0071233222 0.021986382 0.16776091
-0.0029502423 0.022980193 0.16605724
0.0013440974 0.024489099 0.16499998
-0.0057356143 0.025541017 0.16900003
-0.0022155489 0.027070371 0.16810638
0.0018704772 0.027424764 0.16627409
0.0073378221 0.029433757 0.16688891
-0.00057394907 0.030225823 0.16900001
0.0022448979 0.031224566 0.16846672
0.0062111476 0.032052226 0.16703226
-0.017084742 -4.3013159e-05 0.17400002
-0.012249718 -8.8626584e-05 0.17400001
-0.0074125519 -0.00022544924 0.17392856
-0.0022431673 -0.00032799659 0.17359371
0.0025316544 -0.00044090883 0.1736363
0.0074099861 -0.00055870705 0.17347167
0.011291227 -0.00038923699 0.17350005
-0.030895688 0.0042647216 0.17000002
-0.027569152 0.0022243487 0.17160609
-0.022490466 0.0017414902 0.17197588
-0.017466886 0.0015804976 0.17191669
-0.012554332 0.0014329697 0.17173
-0.0075405706 0.0014027988 0.17149474
-0.0026992245 0.0013056401 0.17120223
0.0022967469 0.0011541886 0.17116454
0.0074125947 0.0010310736 0.1709428
0.010888554 0.0010454783 0.17141378
-0.0307172 0.0074622333 0.17091839
-0.0281324 0.0082738409 0.17041743
-0.024773076 0.0098216608 0.17
-0.030718606 0.011865322 0.17355257
-0.027414661 0.012443008 0.17250316
-0.022983719 0.013052445 0.17079991
-0.019349674 0.014575245 0.16999999
-0.025930557 0.015941026 0.17387502
-0.022223197 0.017097238 0.17283234
-0.0178112 0.017865976 0.17113665
-0.014155927 0.019298449 0.17015003
-0.020690883 0.020520596 0.17400001
-0.016951168 0.021910472 0.17317857
-0.012727552 0.022707859 0.17153651
-0.0087716179 0.023939233 0.17025585
-0.011732674 0.026813375 0.17344891
-0.0076475544 0.027596295 0.17165793
-0.0038425182 0.029066306 0.1701622
0.0086221909 0.029251341 0.17200001
-0.006578139 0.031655323 0.17344151
-0.002618128 0.032533363 0.17172502
-0.026199715 -0.0010275459 0.1763778
-0.022488248 -0.0013671227 0.1768257
-0.017568726 -0.0016772393 0.17708176
-0.012463185 -0.0018552991 0.17685729
-0.007472863 -0.0020654865 0.17693578
-0.0025662058 -0.0023335919 0.17707336
0.0025006423 -0.0025733321 0.17705156
0.007643484 -0.0027235546 0.17700009
0.012192723 -0.0026711167 0.17708416
0.015083523 -0.0034227886 0.17900001
-0.030878354 0.014325855 0.17535713
-0.029385827 0.014545172 0.17500001
-0.03076213 0.017384054 0.17739624
-0.027756274 0.017746855 0.17614734
-0.02414467 0.019156728 0.17504998
-0.030589309 0.020477248 0.17900001
-0.027082291 0.021834964 0.17835519
-0.022621417 0.022669625 0.17652088
-0.01850633 0.02386084 0.17535424
0.010566892 0.024639677 0.17799999
-0.025083542 0.025107099 0.17900001
-0.0217609 0.026719837 0.17843039
-0.017569324 0.027502725 0.1768813
-0.013513841 0.028350733 0.17536935
0.0096535236 0.027618004 0.17530771
0.010392591 0.027000394 0.17717859
-0.022501461 -0.0054850993 0.18327504
-0.017412292 -0.0055076056 0.18302281
-0.01259669 -0.0056122588 0.18301922
-0.0074694338 -0.0058001978 0.18287499
-0.0027205595 -0.0059409724 0.18292734
0.0024339806 -0.0061521032 0.18263486
0.0075609027 -0.00626896 0.18263999
0.012311996 -0.0065156878 0.18261631
0.015553676 -0.0060998173 0.18200001
-0.025506539 -0.0034553572 0.18066669
-0.022609744 -0.0038717838 0.18098471
-0.017437877 -0.0040201321 0.18094347
-0.012620928 -0.0041159522 0.18079999
-0.0075050863 -0.0042101457 0.18053845
-0.0025408734 -0.0045160968 0.1804211
0.002262434 -0.004638528 0.18037137
0.0073225824 -0.0047032526 0.18025802
0.012720611 -0.0047045508 0.17999999
0.015490179 -0.004541608 0.18033335
-0.030803118 0.022834532 0.18078789
-0.028508849 0.023757476 0.18014888
0.011392886 0.02486987 0.18000001
-0.0018151118 -0.010701011 0.18900007
0.0018819016 -0.010596335 0.18837039
0.0053651286 -0.010242662 0.18700001
-0.021442251 -0.0075398744 0.18642369
-0.017566403 -0.0077456287 0.18676861
-0.012434338 -0.0080636321 0.18696071
-0.0074146087 -0.008432908 0.18707214
-0.0025272251 -0.0084496951 0.18676522
0.0023711382 -0.0086267292 0.18661296
0.0072200675 -0.0086039491 0.18567106
0.010416101 -0.0085165482 0.185
-0.020365363 -0.010951471 0.19110003
-0.017530436 -0.011299009 0.19198856
-0.012443842 -0.011451666 0.19204456
-0.0077887098 -0.011573195 0.19142221
-0.0040824381 -0.011194837 0.19023532
-0.020847291 -0.0096100587 0.19000001
-0.017460365 -0.0096100578 0.19000004
-0.01467113 -0.0096100587 0.19000001
-0.016573086 -0.015257122 0.19600001
-0.017119531 -0.013867533 0.19537257
-0.013436565 -0.013694949 0.19500004
