# .PCD v0.7 - Point Cloud Data file format
VERSION 0.7
FIELDS x y z
SIZE 4 4 4
TYPE F F F
COUNT 1 1 1
WIDTH 210
HEIGHT 1
VIEWPOINT 0 0 0 1 0 0 0
POINTS 210
DATA ascii
0.0032309238 0.018929193 0.14400004
0.0050581098 0.019350022 0.14400001
0.0030694292 0.020714723 0.14400004
-0.00095990609 0.014695805 0.14900002
0.0029138967 0.01460601 0.1487637
0.0077112271 0.014538475 0.14867169
0.011565804 0.014436738 0.14880489
-0.00133057 0.017007167 0.14794536
0.002262563 0.016756276 0.14627728
0.0074412185 0.017508138 0.14625244
0.011536469 0.016918702 0.14843944
-0.00069034658 0.021431111 0.1484722
0.0026527215 0.023012107 0.14605634
0.0072118416 0.022281578 0.14737968
0.010428053 0.020625889 0.149
0.0032367315 0.026792973 0.14820768
0.0059567909 0.026137792 0.14864284
-0.0063427812 0.013250438 0.15338556
-0.0024317475 0.01303889 0.15203764
0.0024937836 0.012633387 0.15201648
0.0074961805 0.012507404 0.1519888
0.012690121 0.012532279 0.15169027
0.017471153 0.012515423 0.1525923
0.020486047 0.012058766 0.15399997
-0.0057200813 0.016669737 0.15312122
-0.0038516421 0.017455177 0.15110002
0.013689367 0.018029809 0.15064538
0.016810138 0.016970014 0.15271135
-0.0050781718 0.020444071 0.15400001
-0.0025307899 0.022528673 0.15205406
0.0093224226 0.023980832 0.15029417
0.012403558 0.02237292 0.15201521
0.015539504 0.020771421 0.15384214
-0.00098212564 0.026830792 0.15313041
0.0019686336 0.028652988 0.15059209
0.0076939045 0.027838217 0.1513897
0.01111893 0.026601186 0.15342504
-8.4105697e-05 0.030182498 0.15400001
0.0030029335 0.032452628 0.15231359
0.0065935487 0.031962775 0.15321667
0.0036209086 0.035899945 0.15394111
0.005471793 0.035301417 0.15400001
-0.010962847 0.0094264941 0.15874998
-0.0075420588 0.0092117582 0.15830673
-0.0024839784 0.0090831174 0.1579591
0.0025460809 0.0091249142 0.15774345
0.0074691162 0.0090243639 0.15759535
0.012570891 0.0089067072 0.1574118
0.017528716 0.0087651927 0.15707757
0.022435939 0.0085242707 0.15719181
0.027098451 0.0084190425 0.15835215
-0.010910884 0.011795478 0.15811668
-0.0078712627 0.011669268 0.156
-0.0026566896 0.010687695 0.15572725
0.002549482 0.010671863 0.1553334
0.0073698331 0.010612994 0.15512826
0.012473208 0.010515461 0.15500003
0.016586559 0.010398173 0.15499999
0.022875579 0.012647103 0.15608582
0.026190201 0.01183279 0.15829636
-0.007618119 0.017438583 0.15681608
0.018879548 0.018069711 0.15555386
0.021825463 0.017170943 0.15773217
0.0251786 0.015049293 0.15900001
-0.0062720627 0.022127284 0.15802172
-0.0043599294 0.023805216 0.15586364
0.014549303 0.024003981 0.15499999
0.017589243 0.022538662 0.15678582
0.020525711 0.021224409 0.15890475
-0.0054898667 0.025565814 0.15866669
-0.0030657959 0.027687386 0.15699998
0.0099683385 0.029750179 0.155
0.013236886 0.02787363 0.15613338
0.016411655 0.026953302 0.15823963
-0.0013936857 0.031927954 0.15705264
0.00044838953 0.03340384 0.15541175
0.0086997766 0.033012073 0.15568477
0.011790408 0.032102354 0.15767866
0.015209924 0.030174179 0.15900001
-0.00039566634 0.035533153 0.15860002
0.002670995 0.03790468 0.15635848
0.0074280784 0.037314776 0.15711364
0.010479001 0.036054596 0.15893334
0.004324669 0.0048858295 0.16400002
0.0077106892 0.0048681018 0.16400003
0.012408571 0.0047528706 0.16400003
0.017661501 0.0046464493 0.16377504
0.022572991 0.0045746579 0.16361706
0.027623529 0.0042609824 0.16325715
0.030477183 0.0046186331 0.1618889
-0.01566441 0.0079370281 0.16324329
-0.012508136 0.0074499147 0.16198829
-0.0074442863 0.0068325102 0.16203715
-0.0024281107 0.0066635287 0.16198654
0.002474559 0.0065603727 0.16184399
0.0074733649 0.0064840354 0.16174431
0.012448631 0.0063589145 0.16146785
0.017399408 0.0062555722 0.16136847
0.022433437 0.0059981267 0.16132259
0.02780368 0.0063761687 0.16076624
0.031395424 0.0076443823 0.16086611
-0.015153915 0.010141965 0.163
-0.01316727 0.012706956 0.16232832
0.028276917 0.013081199 0.16096486
0.031486582 0.012143357 0.16305397
-0.011342913 0.017286126 0.16249251
-0.0093032774 0.018556373 0.16055001
0.024005409 0.018487461 0.16045284
0.027153678 0.017294522 0.16245691
0.030291542 0.015589019 0.164
-0.010569857 0.020950394 0.16400002
-0.0083013512 0.022620393 0.16185714
0.019694308 0.024072729 0.16
0.022660639 0.022633107 0.16173451
0.025908785 0.02110864 0.16370593
-0.0062674033 0.02765641 0.16244447
-0.0043536364 0.029381812 0.16040002
0.018409377 0.028195787 0.16102082
0.021402832 0.026925873 0.16314423
-0.0056000785 0.031857032 0.16377781
-0.0038180114 0.033125062 0.16237041
0.013847263 0.033426236 0.16049121
0.017032353 0.032201473 0.16233082
0.020208826 0.03023666 0.164
-0.0020493385 0.037082851 0.16236362
-0.020252714 0.0039778342 0.16900001
-0.01735975 0.003842961 0.16779415
-0.012444282 0.003699187 0.1672561
-0.0074997032 0.0036437451 0.16712321
-0.0024066942 0.0035779292 0.16697876
0.0025082533 0.0033927637 0.16704229
0.0075089904 0.0031714842 0.16697861
0.012559209 0.0029298805 0.16692668
0.017504133 0.0026901485 0.16692767
0.022635562 0.0023198531 0.16710681
0.02621826 0.0026183384 0.16596296
-0.020249618 0.005004996 0.16800001
-0.017947214 0.007172226 0.16663638
-0.012875676 0.0053239702 0.16499999
-0.0098552965 0.0051831603 0.16500001
-0.016650837 0.012109749 0.16731341
-0.014574485 0.014026783 0.16516666
0.032720938 0.014159285 0.16521738
-0.015620249 0.016496379 0.16849999
-0.01376232 0.017883694 0.16690743
0.029229339 0.018507408 0.1650769
0.031685602 0.017317576 0.16631438
-0.011958529 0.0224688 0.16713043
-0.0094331261 0.024246769 0.16510001
0.024724152 0.024646642 0.16500001
0.027910836 0.022719463 0.16647273
0.030812118 0.021858895 0.16851071
-0.01060082 0.026625523 0.16833334
-0.0088350773 0.027768632 0.16700003
0.023612279 0.028014679 0.16575864
0.026768113 0.026980547 0.16783026
-0.007292219 0.032418966 0.16715221
0.019177418 0.033694983 0.16574356
0.022278138 0.032256968 0.16739707
0.025346361 0.030564789 0.16900001
-0.011191388 -0.00037934564 0.17327781
-0.0076385029 -0.00048475276 0.1736511
-0.002351251 -0.00051688665 0.17352077
0.002582049 -0.00059805607 0.17308931
0.0076152124 -0.00074352446 0.17313844
0.012529422 -0.00078946457 0.17297216
0.01773284 -0.00097182213 0.17284338
0.0215041 -0.00084345578 0.17154166
-0.016406644 0.0018477659 0.1705429
-0.012449902 0.0012706642 0.17134115
-0.0074809082 0.0011681512 0.1713132
-0.0026064091 0.0010821109 0.1709615
0.0024811877 0.00095703936 0.17082347
0.0074789906 0.00082072761 0.17091526
0.012338145 0.00076929777 0.17052943
0.017380392 0.00064940756 0.17055815
0.021225186 0.00056730647 0.17005265
-0.018471265 0.012996646 0.17054056
-0.01711081 0.017424235 0.17132692
-0.014977756 0.019673843 0.17
0.033199131 0.01936757 0.16999999
-0.015829772 0.021500945 0.17259093
-0.014102683 0.022859029 0.17073335
0.032357909 0.023018219 0.17058532
-0.012010317 0.027296169 0.17118368
0.02884076 0.028251933 0.17059653
0.031647742 0.02729417 0.17225266
-0.010394342 0.031913199 0.17169231
-0.00918792 0.032620002 0.17046671
0.014704458 -0.0051159188 0.17900001
0.015575178 -0.0052320147 0.17900001
-0.0069259736 -0.0017540607 0.17556868
-0.0024638493 -0.002581079 0.17670178
0.0025282502 -0.0028736386 0.17694798
0.007339885 -0.0030638331 0.17700003
0.012486676 -0.0032955394 0.17700808
0.016870834 -0.0031649345 0.1761342
-0.018113939 0.019684978 0.17500001
-0.01774024 0.022885926 0.17771429
-0.016182425 0.026359254 0.17831577
-0.00044875705 -0.0052146283 0.1804
0.0030496453 -0.0061077392 0.1821305
0.0075204815 -0.0064257351 0.1823093
0.012051862 -0.0060442127 0.18128131
0.015370329 -0.0060200822 0.18000001
-0.0012414277 -0.0046823858 0.18000004
0.0020829716 -0.0047758324 0.18000004
0.0074900817 -0.0048526386 0.18000004
0.010262761 -0.0048526386 0.18000001
0.007809239 -0.0084870644 0.18499996
