# .PCD v0.7 - Point Cloud Data file format
VERSION 0.7
FIELDS x y z
SIZE 4 4 4
TYPE F F F
COUNT 1 1 1
WIDTH 136
HEIGHT 1
VIEWPOINT 0 0 0 1 0 0 0
POINTS 136
DATA ascii
0.044302512 0.019592142 0.13830002
0.047626898 0.019125534 0.13817498
0.052557006 0.018578833 0.13775006
0.057553925 0.018490829 0.137289
0.062595755 0.018398136 0.13687555
0.067528866 0.018058371 0.13646013
0.071112975 0.017532645 0.13654706
0.044312645 0.0216453 0.13853657
0.047613636 0.022200568 0.13830054
0.052473806 0.022385592 0.13769867
0.057463326 0.02232906 0.13713364
0.062627599 0.022416761 0.13657483
0.067510001 0.022384483 0.13591853
0.070980817 0.022745721 0.13594547
0.053174824 0.025222883 0.139
0.058080047 0.025450855 0.13899998
0.062526964 0.025965462 0.13877389
0.067724116 0.026196711 0.13852994
0.071545646 0.02673153 0.13840006
0.05467448 0.014796992 0.14400001
0.058242686 0.014633846 0.14350006
0.062671654 0.014302466 0.14304714
0.0676331 0.013999302 0.1429788
0.07245037 0.014004507 0.14267781
0.075525023 0.013279316 0.14400002
0.044567373 0.017883196 0.14163411
0.047532678 0.01684371 0.14191352
0.052389238 0.016185241 0.14206718
0.057317454 0.015971825 0.14122008
0.062384758 0.015897531 0.14072278
0.067527525 0.015758161 0.14067964
0.071869612 0.015590648 0.14017996
0.044182543 0.024090813 0.1400968
0.046606712 0.024595421 0.14
0.044240762 0.027627384 0.1423444
0.047515348 0.027445456 0.14140102
0.052432019 0.027711974 0.14128572
0.057330582 0.027741469 0.14070913
0.062400293 0.028402628 0.14051417
0.067284524 0.028636595 0.14028151
0.07208924 0.028971482 0.14008062
0.044504751 0.030726114 0.14400002
0.047833145 0.030884204 0.14387326
0.05260333 0.031327397 0.14357798
0.05745301 0.03150177 0.14306249
0.062501602 0.032049853 0.14303909
0.06757687 0.032167535 0.1426015
0.072461337 0.032327674 0.14231741
0.075284965 0.033830475 0.14310531
0.069695592 0.035188347 0.14400001
0.07298442 0.035407104 0.14400004
0.075454988 0.035670891 0.14400004
0.071953088 0.0098492764 0.14891669
0.075248279 0.0098023871 0.149
0.044699948 0.013848491 0.14772728
0.047571208 0.013490519 0.14719719
0.052548122 0.013444668 0.14683096
0.057424001 0.012995645 0.1470297
0.062479071 0.012463448 0.14695305
0.067570522 0.011804317 0.14679198
0.072556779 0.011526284 0.14643215
0.075209431 0.011275101 0.14692309
0.044497795 0.016360709 0.14603029
0.046304174 0.015272769 0.14514285
0.04365132 0.027909186 0.14500001
0.044114232 0.033095073 0.14628357
0.047495205 0.033382967 0.14568397
0.052360531 0.033952896 0.14536856
0.057374395 0.034220215 0.14528406
0.061544888 0.034497861 0.14500001
0.066457018 0.034612842 0.145
0.044336092 0.036703158 0.14838096
0.047493279 0.036998909 0.14794038
0.052531924 0.037662569 0.14795741
0.057395417 0.037595671 0.14741856
0.062540948 0.037559777 0.14686954
0.067513026 0.037389651 0.14626588
0.072506979 0.037921347 0.14641805
0.076177381 0.038597275 0.14668836
0.054519333 0.040195167 0.149
0.057176895 0.040259592 0.14900002
0.062759295 0.04080173 0.14900005
0.067929104 0.041077808 0.1489715
0.072258733 0.041130796 0.14869142
0.076483384 0.041376557 0.14868002
0.047832716 0.0093367733 0.1535909
0.052534554 0.0091550127 0.15313485
0.057511073 0.0090895239 0.15316132
0.062589072 0.0090077017 0.15298066
0.067393877 0.0089182351 0.15243757
0.071057387 0.0088098394 0.15244441
0.044913318 0.012494924 0.15000001
0.047364429 0.010962221 0.15131861
0.052324411 0.010951351 0.15076356
0.057418983 0.010740637 0.15080647
0.06252753 0.01060757 0.15049998
0.066999599 0.010340649 0.15043187
0.070207939 0.010062749 0.15000001
0.04446518 0.039093811 0.15007143
0.047601514 0.039575271 0.15000007
0.050561368 0.039897431 0.14999999
0.047441751 0.04249255 0.15193512
0.052473869 0.042528555 0.15135518
0.05815687 0.004994682 0.15900004
0.062526762 0.0048657758 0.15899998
0.067343973 0.0048524411 0.15899996
0.070656382 0.0049946816 0.15900002
0.075929202 0.0047972407 0.15838462
0.044838194 0.0089086657 0.15653336
0.047387607 0.0073693721 0.15698254
0.052504592 0.0069527039 0.15689945
0.057519417 0.006804572 0.15663758
0.062475223 0.0067130304 0.15661849
0.067493759 0.0066767586 0.156367
0.071931504 0.0067617949 0.15548696
0.075791277 0.0057286783 0.15791667
0.044828694 0.010434753 0.15650001
0.045192175 0.010718204 0.156
0.04801945 0.0037650901 0.16258335
0.052563157 0.0035893486 0.16227007
0.057559974 0.0035001109 0.16192144
0.062605925 0.0030097037 0.16213369
0.067603461 0.0026653127 0.1621877
0.072114952 0.0030309057 0.16171557
0.07587719 0.0030391964 0.16100004
0.047716748 0.0053461366 0.1600645
0.052227654 0.0052065696 0.16000004
0.055755362 0.0050260946 0.16000001
0.052115597 -0.00027796903 0.16700001
0.058148988 -0.00026957548 0.16600001
0.060672373 -0.00016864024 0.16600001
0.048266608 0.001477993 0.16634326
0.052349575 0.0011929127 0.16604488
0.057469089 0.0010879819 0.16569325
0.061798595 0.00088238931 0.16515382
0.066527173 0.00063499337 0.16500001
