# .PCD v0.7 - Point Cloud Data file format
VERSION 0.7
FIELDS x y z
SIZE 4 4 4
TYPE F F F
COUNT 1 1 1
WIDTH 213
HEIGHT 1
VIEWPOINT 0 0 0 1 0 0 0
POINTS 213
DATA ascii
-0.011764419 0.0096692173 0.15899998
-0.0099432711 0.0099641904 0.15900001
-0.011872906 0.011962153 0.1590002
-0.0097950706 0.011705539 0.15899999
-0.017191475 0.0082061179 0.1629236
-0.012477505 0.0078198472 0.16179743
-0.0073904055 0.0079057235 0.16234782
-0.0042108689 0.0079455562 0.1638696
-0.01637982 0.011891072 0.16265553
-0.01335567 0.01326651 0.16054995
-0.0075904615 0.012300131 0.16177291
-0.004666999 0.010535482 0.164
-0.015352451 0.015874302 0.16400003
-0.01218346 0.017256793 0.16209552
-0.0087043354 0.01718335 0.16291174
-0.011246181 0.020896304 0.16380559
-0.0095967427 0.020738907 0.16400003
-0.025188521 0.0046543088 0.16900001
-0.022284517 0.0042240894 0.16847695
-0.017378833 0.0041212086 0.16800004
-0.012414755 0.0038890629 0.16784374
-0.0074953283 0.0038214854 0.16762245
-0.0024905254 0.0037141109 0.16757549
0.0011516509 0.0037605029 0.16869648
-0.025241686 0.0060188319 0.16900001
-0.022155592 0.0073018707 0.16693866
-0.017802011 0.0060528889 0.16547826
-0.012687481 0.0055586523 0.16536166
-0.0076602586 0.0054799281 0.16532496
-0.0020840566 0.0073572234 0.16614848
0.00071287376 0.0067132255 0.16856258
-0.021017687 0.011799707 0.16801757
-0.018568018 0.013022217 0.16604941
-0.0054973648 0.013853439 0.16526085
-0.0029472278 0.012240506 0.16730072
-0.020138014 0.01519835 0.16900001
-0.017229116 0.017272338 0.16721949
-0.014477056 0.019092657 0.1653125
-0.006388675 0.017750964 0.16645545
-0.0042255684 0.016585108 0.16843757
-0.015828535 0.021241907 0.16823997
-0.012738805 0.022827528 0.16619028
-0.0079824664 0.022385515 0.16705802
-0.011683797 0.027195066 0.16815004
-0.0089600068 0.026800169 0.16843338
-0.011100266 0.030084055 0.16900001
-0.01708474 -4.3013159e-05 0.17400002
-0.0125234 -4.3013155e-05 0.17400001
-0.0074146967 -0.00022546691 0.17399998
-0.0025348975 -0.00026445815 0.17357144
0.0024331308 -0.00040783832 0.17366661
0.0062318128 -0.00040788692 0.17386365
-0.030558292 0.0027555295 0.17383868
-0.027391484 0.0025562798 0.17224695
-0.022526186 0.0018195882 0.17193027
-0.017542897 0.0016977449 0.17183892
-0.012583666 0.0014478338 0.17195043
-0.0075189518 0.0013963225 0.17161459
-0.0026743237 0.0013133019 0.17131813
0.0028662377 0.0021376989 0.17108695
0.0063636927 0.0022418811 0.17317711
-0.030221403 0.0056130523 0.17400001
-0.027358642 0.0072553027 0.17225006
-0.024393084 0.0091988603 0.17033336
0.0028757574 0.0077056112 0.17181064
0.0055512921 0.0058274986 0.17372224
-0.025791313 0.011388093 0.17325805
-0.023253394 0.012897216 0.17144996
-0.00096158072 0.01350566 0.17032503
0.0014249795 0.012142119 0.17255241
-0.02193174 0.017190056 0.17263719
-0.019133711 0.018671859 0.17053574
-0.0021501638 0.017675525 0.17169769
0.00047993919 0.01617516 0.17359096
-0.020691566 0.020929091 0.17382355
-0.017694939 0.022626758 0.17162074
-0.014909393 0.024736028 0.17
-0.0057969117 0.023223706 0.17087233
-0.0036536332 0.021915745 0.17262635
-0.016416771 0.027115511 0.17280258
-0.014096759 0.027992275 0.17069234
-0.0069086589 0.027719276 0.17178816
-0.004573633 0.025709026 0.17400001
-0.015367223 0.03064106 0.17383336
-0.012153338 0.032414027 0.17179294
-0.0083448198 0.032250214 0.17239656
0.011892682 -0.0052997544 0.17900001
-0.036407016 -0.0011683534 0.17849125
-0.032411158 -0.0013135276 0.17743877
-0.027481975 -0.0014471828 0.17711617
-0.0225011 -0.0015198874 0.17688331
-0.017573936 -0.0016839678 0.17690825
-0.01243024 -0.0018257338 0.17686199
-0.0074529666 -0.0020639268 0.17698146
-0.0024996649 -0.0022924521 0.17707005
0.0024789362 -0.0024635352 0.17700897
0.0076856581 -0.0023513369 0.17675202
0.012052532 -0.0024875936 0.17815451
-0.036237136 0.0012613888 0.17851424
-0.032868914 0.0023665421 0.17613909
-0.028743571 0.00032374426 0.17500001
0.0087433793 0.0028866495 0.17595895
0.011104851 0.0019023444 0.17809376
-0.031773195 0.0071328962 0.17756632
-0.029055644 0.0090796584 0.17566669
0.0046114177 0.0094600311 0.175125
0.0074411631 0.0074322447 0.17714925
0.010203412 0.0053989533 0.17900001
-0.030509844 0.010492282 0.178625
-0.027850274 0.012735038 0.17681555
0.0038316709 0.012970425 0.17621799
0.0061177709 0.011913897 0.17834483
-0.026396608 0.016947336 0.17794031
-0.024066197 0.018400742 0.17587885
-0.00042305721 0.019346815 0.17500001
0.0023470137 0.017449223 0.17699194
0.0053233011 0.015346874 0.17900001
-0.025177389 0.020508531 0.17900001
-0.022341847 0.022509757 0.17670754
-0.019479051 0.024357738 0.17511113
-0.0014966993 0.023018029 0.17610846
0.0010557335 0.021922361 0.1780448
-0.021042248 0.026988676 0.17802
-0.018752163 0.027822124 0.17602901
-0.0053315824 0.029187268 0.1751
-0.0027690073 0.027353324 0.1771172
0.00016164542 0.025388645 0.17900001
-0.030809291 -0.0054855794 0.18362501
-0.02761217 -0.0055250823 0.18355817
-0.022351038 -0.0055192579 0.18311365
-0.017596506 -0.0056153056 0.18311539
-0.012476039 -0.0057441546 0.18313335
-0.0077023902 -0.0058440305 0.18308069
-0.0026170542 -0.0059942123 0.18296158
0.0025178578 -0.0061514042 0.18282256
0.0073536984 -0.0064650849 0.18238205
0.01073283 -0.0057220273 0.18045457
-0.035227168 -0.0030644196 0.18000001
-0.032259203 -0.0036935536 0.18088713
-0.027550038 -0.0039190524 0.18117236
-0.022549804 -0.0040330566 0.18088679
-0.017448632 -0.0040082484 0.180574
-0.012624819 -0.0041176467 0.18086669
-0.0073644263 -0.00426176 0.18042861
-0.0026401754 -0.0045727077 0.1806501
0.0024661263 -0.0045738984 0.18031709
0.0074527133 -0.0047575049 0.18028571
0.0136709 -0.0010969494 0.18050002
-0.03682211 0.0034328133 0.1806379
0.013132893 0.0028585203 0.18127385
0.015036803 0.0022574537 0.18300001
-0.036371175 0.007243251 0.18292858
-0.033806015 0.0082846712 0.18065958
0.0094596874 0.0089314431 0.18020004
0.011806531 0.007338448 0.18234001
-0.0352658 0.010759129 0.18400003
-0.032259647 0.012418043 0.18174036
-0.02967806 0.014224643 0.18000001
0.0083159991 0.012738056 0.18138143
0.010721429 0.011773945 0.18357579
-0.030962901 0.016727384 0.18331252
-0.028510503 0.017980736 0.18089555
0.004289696 0.018510584 0.18025003
0.0067180111 0.017249664 0.18231684
-0.027092367 0.022303609 0.18212865
-0.024537055 0.023662174 0.18050002
0.0032837323 0.022863498 0.18145652
0.0056576673 0.021362172 0.18351728
-0.0015579151 -0.010396251 0.18900001
0.0010318569 -0.010595279 0.18878572
-0.026621575 -0.0073118336 0.18619302
-0.022570426 -0.0080229212 0.18713906
-0.0174933 -0.0080571473 0.1868614
-0.012555853 -0.0082240449 0.18704228
-0.0073449798 -0.0084102312 0.1870632
-0.0025290719 -0.0084572211 0.18691838
0.0022660287 -0.0085712373 0.18643481
0.0053703273 -0.0083139446 0.18550001
0.014676729 0.0039332709 0.18553847
0.015255919 0.0039761239 0.18566668
-0.037648346 0.0089404508 0.18514284
0.014106863 0.0081395749 0.18578568
0.015053377 0.0096130874 0.18800001
-0.036700569 0.012580184 0.18659501
-0.034369092 0.013843943 0.18515384
0.012825812 0.012596069 0.18674259
0.015133448 0.013033322 0.18900001
-0.035853963 0.016217591 0.18845002
-0.032994967 0.0176821 0.18618612
0.0090255225 0.018161533 0.18578431
0.011326018 0.017072141 0.18791047
-0.031622104 0.022217439 0.18752633
-0.029266175 0.023526423 0.1855
0.0077220583 0.022642808 0.18696396
0.010524635 0.020463644 0.18880002
-0.021462271 -0.011221288 0.19163461
-0.017657762 -0.011598183 0.19232041
-0.012437332 -0.011652516 0.19244674
-0.0077512786 -0.011379265 0.19170366
-0.002860805 -0.011449238 0.19079241
7.1963441e-05 -0.011403139 0.19000001
-0.038379617 0.014496899 0.19000001
0.014466403 0.014347475 0.19000003
-0.03677943 0.01792993 0.19047058
-0.034893077 0.019577291 0.19000001
0.013689638 0.017764676 0.19109583
-0.016096681 -0.015716676 0.19771428
-0.014288427 -0.015614656 0.19822223
-0.0087632313 -0.015257122 0.19600001
-0.016374698 -0.014156332 0.19637503
-0.013072804 -0.014096507 0.19584003
-0.0078560924 -0.014004283 0.19521743
-0.013046072 -0.016282868 0.20084615
