# .PCD v0.7 - Point Cloud Data file format
VERSION 0.7
FIELDS x y z
SIZE 4 4 4
TYPE F F F
COUNT 1 1 1
WIDTH 106
HEIGHT 1
VIEWPOINT 0 0 0 1 0 0 0
POINTS 106
DATA ascii
-0.0013556643 -0.065662473 0.27808338
0.0026866093 -0.065592915 0.27833334
0.0052762418 -0.065879196 0.27900001
-0.001018158 -0.063135177 0.27862495
0.0022429938 -0.063076437 0.27868426
0.0052762418 -0.06497442 0.27900001
0.013659651 -0.070283264 0.28400001
-0.0056695761 -0.066988833 0.28342861
-0.0040273452 -0.06671568 0.28171432
0.0080127316 -0.066716053 0.28136954
0.011694752 -0.067594044 0.28352281
-0.0052205143 -0.063951507 0.28400001
-0.0029296326 -0.062276099 0.2817111
0.0034604266 -0.061106898 0.28025004
0.0074656145 -0.062726863 0.28250602
0.010988799 -0.064112678 0.28400001
-0.0013301047 -0.057969928 0.28221741
0.0026124271 -0.057712059 0.28196523
0.0060549616 -0.059084661 0.28366667
-0.0004620986 -0.054473054 0.28400001
0.0017146317 -0.054187544 0.28381249
0.014477937 -0.070684783 0.28500003
0.018007532 -0.070922293 0.28650004
0.02213062 -0.071431205 0.28887504
-0.0075800866 -0.067407258 0.28709096
0.013996783 -0.067056969 0.28523332
0.017620929 -0.067611314 0.28713754
0.021062464 -0.0689191 0.28890002
-0.0060870713 -0.06328138 0.28611112
-0.004515951 -0.060482334 0.28600001
0.0092234341 -0.060592327 0.2851429
0.012636918 -0.062339541 0.28623369
0.016424552 -0.063273378 0.28829411
-0.0038990497 -0.057111874 0.28709382
0.0048163901 -0.055675678 0.28525001
0.0076192403 -0.057280298 0.28614753
0.011564887 -0.058017578 0.28820404
-0.0021340239 -0.052742131 0.28713557
0.0027846196 -0.05213571 0.28617388
0.0070104953 -0.053132091 0.28812495
0.010151345 -0.054416783 0.289
-0.00093750824 -0.047856878 0.28833339
0.0023701999 -0.047961552 0.28833327
0.005933953 -0.049965091 0.289
-0.00078263355 -0.044810504 0.289
0.00093556312 -0.044810504 0.289
0.024333356 -0.071442641 0.29016665
0.027682787 -0.071742713 0.29168424
0.030425625 -0.072547592 0.29342857
0.019590881 -0.065420143 0.29000002
0.022629498 -0.067359716 0.29118037
0.026909873 -0.067814648 0.2931698
-0.0058010272 -0.060012609 0.29000002
0.01819706 -0.061760765 0.29093021
0.02199989 -0.06292069 0.29293334
0.025365077 -0.064349979 0.29385719
-0.006501114 -0.058181535 0.29114282
0.01360255 -0.056724913 0.29087499
0.017337976 -0.057836134 0.29276815
0.021132318 -0.059489705 0.29400003
-0.0053920811 -0.051189363 0.29333335
-0.0039008751 -0.051036805 0.29133332
0.0086719766 -0.051321141 0.29042855
0.012298205 -0.052795991 0.29238096
0.015427209 -0.054003499 0.29385716
-0.0033233443 -0.04790774 0.29233336
0.0039596963 -0.04621933 0.29025
0.0074387165 -0.047476966 0.29194373
0.01109324 -0.048894577 0.29368424
-0.0016911554 -0.042412065 0.29174471
0.0023620999 -0.042516258 0.29175338
0.0060985903 -0.043535441 0.29334384
0.03061131 -0.071251631 0.29500002
0.02868765 -0.066231638 0.29530007
0.030564208 -0.068386897 0.2954286
0.024049759 -0.061140802 0.29521057
0.027668254 -0.062304929 0.29679728
0.030737676 -0.062431425 0.29826316
-0.010655923 -0.058092296 0.29866672
-0.0089115482 -0.057285417 0.29699999
0.019208623 -0.056014653 0.29520005
0.022773022 -0.057444002 0.29650003
0.02641904 -0.058251426 0.29871994
-0.005422717 -0.050045773 0.29500002
0.014188723 -0.05079744 0.29500005
0.017567795 -0.052253041 0.29621869
0.021419359 -0.05319206 0.29819509
-0.0060913707 -0.047509857 0.2977778
-0.0044755028 -0.046645477 0.29561543
0.009246001 -0.045421939 0.29500002
0.012858079 -0.047000743 0.29620686
0.016970951 -0.048139028 0.29784903
-0.004178152 -0.042208038 0.29647061
0.015835552 -0.044906598 0.29900002
0.032184087 -0.060622703 0.30000001
0.024644345 -0.05527192 0.30000001
0.028205233 -0.056905158 0.30081826
0.030938484 -0.058473457 0.30077782
0.023648046 -0.051950682 0.30064109
0.027405819 -0.05282129 0.30256462
-0.0075775641 -0.046380136 0.30117649
0.018679041 -0.046242621 0.30071437
0.022353739 -0.047864925 0.3024562
0.025568143 -0.04919003 0.30375001
0.028352033 -0.050753158 0.30500004
0.030412627 -0.052236788 0.30500004
