# .PCD v0.7 - Point Cloud Data file format
VERSION 0.7
FIELDS x y z
SIZE 4 4 4
TYPE F F F
COUNT 1 1 1
WIDTH 115
HEIGHT 1
VIEWPOINT 0 0 0 1 0 0 0
POINTS 115
DATA ascii
0.077288702 -0.026741659 0.21251014
0.082569689 -0.026994243 0.21301299
0.085346855 -0.02756024 0.21400002
0.077514701 -0.023376692 0.21345972
0.081316873 -0.024054298 0.21368578
0.073241986 -0.030611241 0.21825002
0.093514279 -0.030197512 0.2175
0.0738196 -0.027802043 0.21699998
0.075182721 -0.029327501 0.215
0.084943853 -0.025667075 0.215
0.087871909 -0.027278282 0.21593416
0.092276856 -0.027811822 0.21774736
0.095940642 -0.02871594 0.21893339
0.074492648 -0.022916846 0.21729545
0.07667654 -0.021343537 0.21528579
0.082917877 -0.02218193 0.21595559
0.087023966 -0.022908613 0.21792865
0.090311907 -0.024605848 0.21900003
0.074805982 -0.019042652 0.21900001
0.077335604 -0.017608318 0.21697004
0.081983708 -0.017993161 0.21792047
0.085712545 -0.01914411 0.21900001
0.07800965 -0.013935359 0.21873811
0.080605909 -0.014663117 0.21900003
0.069976196 -0.035095222 0.22400001
0.070702605 -0.035095222 0.22400001
0.06964758 -0.032310653 0.22400001
0.071206555 -0.032025293 0.22199999
0.069976196 -0.029102342 0.22400001
0.071640268 -0.027341992 0.2215412
0.093779705 -0.025837835 0.22036843
0.096267752 -0.026145855 0.22113048
0.072951376 -0.022603396 0.2217765
0.089023292 -0.021333361 0.22038458
0.0922582 -0.022943517 0.22093911
0.096241407 -0.02341404 0.22275867
0.073910162 -0.017693333 0.2224545
0.075296454 -0.01637412 0.22105886
0.083795547 -0.016098512 0.22029622
0.087698892 -0.017293112 0.22152124
0.090981193 -0.018043811 0.22357696
0.074426204 -0.013439013 0.22361112
0.076801978 -0.012045346 0.22118266
0.082691498 -0.012475118 0.22177999
0.086949721 -0.013493617 0.22336203
0.077803694 -0.0084262276 0.22253008
0.081643842 -0.0086980779 0.22330001
0.068126433 -0.035959091 0.22700006
0.06816189 -0.032625031 0.22669744
0.069019087 -0.02765457 0.22715385
0.070489585 -0.026241623 0.22533333
0.069482237 -0.023479266 0.22850004
0.071004212 -0.022037011 0.22673538
0.097485229 -0.021541961 0.22527078
0.072126433 -0.017424064 0.22719118
0.093192302 -0.016905241 0.22574197
0.096920632 -0.017184125 0.22742666
0.073514342 -0.012382951 0.22700004
0.075031333 -0.010261299 0.22500001
0.08799585 -0.01117177 0.22547828
0.092323169 -0.012751678 0.22735003
0.09646745 -0.013931113 0.22870591
0.074417338 -0.0079578133 0.22751221
0.076539584 -0.0064604003 0.22564155
0.08309678 -0.0066497969 0.22596779
0.087225839 -0.0079061696 0.22752111
0.090802915 -0.0087994821 0.22875006
0.074879974 -0.004317075 0.22900002
0.064694814 -0.038206197 0.23300001
0.066000022 -0.037019737 0.23119998
0.066451125 -0.032583773 0.23104648
0.067721583 -0.027518705 0.23175614
0.069035232 -0.022685925 0.2309
0.06969434 -0.018768268 0.23188238
0.070809416 -0.016785901 0.23094115
0.099696256 -0.015979739 0.22999999
0.10092343 -0.016126506 0.23099998
0.071583994 -0.012312773 0.23177461
0.094192795 -0.011015915 0.23010002
0.097654179 -0.011472366 0.23157813
0.10058229 -0.011311935 0.23291668
0.073053963 -0.0073814532 0.23198551
0.088351846 -0.0056556431 0.23023809
0.092661701 -0.0070114774 0.2314533
0.097070113 -0.0080107348 0.23306246
0.10046048 -0.0086271036 0.234
0.062727198 -0.041059021 0.23793335
0.063586585 -0.037662745 0.23749098
0.065029636 -0.035675526 0.23500001
0.064359896 -0.033134036 0.23790906
0.065617658 -0.03191432 0.2360938
0.066482373 -0.027429398 0.23715517
0.067945652 -0.022420136 0.23692989
0.069014132 -0.018004689 0.23761111
0.070158593 -0.015946215 0.23740001
0.069637686 -0.013594596 0.23816667
0.07032755 -0.011931918 0.2373333
0.061304778 -0.041224465 0.24060868
0.061669879 -0.037298709 0.24127586
0.062833518 -0.032648597 0.24192187
0.06408228 -0.028055536 0.242
0.065600015 -0.026175866 0.24049999
0.064802155 -0.024420373 0.24360004
0.066197217 -0.022350909 0.24212728
0.067560703 -0.0174226 0.2420308
0.068952613 -0.012691073 0.24232654
0.061489146 -0.030974781 0.24785002
0.062708825 -0.027761685 0.24713956
0.064008631 -0.022686504 0.24701959
0.065479517 -0.020906171 0.245
0.064543962 -0.018464424 0.24825001
0.065760612 -0.016997442 0.24627027
0.061703809 -0.026813483 0.25175002
0.062268291 -0.022498012 0.25338715
0.061777834 -0.02051907 0.25500003
