# .PCD v0.7 - Point Cloud Data file format
VERSION 0.7
FIELDS x y z
SIZE 4 4 4
TYPE F F F
COUNT 1 1 1
WIDTH 209
HEIGHT 1
VIEWPOINT 0 0 0 1 0 0 0
POINTS 209
DATA ascii
-0.010792053 0.0097216815 0.15900004
-0.0075132637 0.0094525972 0.1585345
-0.0031543262 0.0093807988 0.15864816
-0.010707637 0.011556424 0.15874283
-0.0074597392 0.012408842 0.15677737
-0.0031671147 0.012294168 0.15758093
-0.0065409057 0.017029569 0.15799163
-0.0041406304 0.017137723 0.15833338
-0.0054416992 0.020301137 0.15900001
-0.016531892 0.0081080347 0.16344674
-0.012527455 0.0078399414 0.16180818
-0.0074169668 0.0073052803 0.16204162
-0.0023066541 0.0072373496 0.16193539
0.001950214 0.0076147378 0.16279034
-0.015883079 0.011390844 0.16350004
-0.012885404 0.012564587 0.1613974
-0.0096702604 0.014724518 0.16000001
-0.0008340964 0.013061491 0.16052829
0.0011720527 0.012013678 0.16244327
-0.011490781 0.016953839 0.16277353
-0.0086842589 0.018148277 0.16073416
-0.0018709413 0.017588306 0.16181961
0.00036283373 0.015800092 0.16375002
-0.010452488 0.020595603 0.16400002
-0.0071925023 0.022321127 0.16210355
-0.0033837028 0.022165755 0.16247901
-0.006175111 0.026363103 0.16366039
-0.0041542184 0.025849797 0.16366671
-0.022178274 0.0042474037 0.16836664
-0.017448867 0.0039688721 0.16771758
-0.012427545 0.0039697676 0.16745564
-0.0074092415 0.0037480905 0.1674369
-0.0025704796 0.0036396659 0.16742855
0.0025554947 0.0035825362 0.16729842
0.0071152113 0.0035040753 0.16820581
-0.025099915 0.0052745463 0.16900001
-0.022047203 0.0071734171 0.16770211
-0.018280743 0.0068424884 0.16542163
-0.012633164 0.0054818382 0.16536582
-0.0076904963 0.0054087304 0.16514702
-0.0029425269 0.0052407649 0.16499999
0.0039360183 0.0069882763 0.16514544
0.0066457787 0.0071839048 0.16750003
-0.020680595 0.011351308 0.16870002
-0.017897842 0.012796199 0.16674814
-0.014816916 0.014665609 0.16500001
0.0035556024 0.012786799 0.16648041
0.0056048296 0.011804406 0.16875002
-0.016614417 0.016870113 0.16790001
-0.013742687 0.018013708 0.16585001
-0.00041351528 0.019135695 0.16512501
0.002019149 0.017376095 0.16707698
-0.015264719 0.020426068 0.16900001
-0.012270469 0.022364197 0.16702841
-0.0092587601 0.023853976 0.16512498
-0.0011320926 0.022950137 0.16612329
0.00083589327 0.021887099 0.16831671
-0.010948284 0.026666053 0.16829416
-0.0079098623 0.027922705 0.16613191
-0.0025045199 0.02749466 0.16685621
6.400959e-05 0.025299365 0.16900001
-0.0068407096 0.032085624 0.16789562
-0.0039458936 0.031965364 0.16823286
-0.016537379 -4.3013155e-05 0.17400001
-0.012486909 -6.7340305e-05 0.17400002
-0.0070577222 -0.00018580303 0.17400002
-0.0022447824 -0.0003280121 0.17365621
0.0024331303 -0.00040783832 0.17366661
0.0076572369 -0.00054753863 0.17332688
0.011835965 -0.00054194452 0.17365785
-0.030603036 0.0025738839 0.17371047
-0.02732919 0.0025927527 0.17211381
-0.022607319 0.0018658669 0.1717633
-0.017560497 0.0015549231 0.1718972
-0.012577398 0.0015368897 0.17157808
-0.0076003685 0.0013376902 0.17164841
-0.0025746317 0.0012300537 0.17137797
0.0022947083 0.0011533438 0.17103794
0.0078059449 0.0014642986 0.17067811
0.011767553 0.0023516007 0.17225
-0.030221403 0.0052481443 0.17400001
-0.027061982 0.0070980377 0.17213041
-0.024079029 0.0087614749 0.1702286
0.0088816481 0.0080969557 0.17092425
0.010988661 0.0068670698 0.17318955
-0.025830509 0.011142676 0.17353848
-0.022832425 0.01271143 0.17162995
-0.019900655 0.014753504 0.17
0.0076422715 0.012543675 0.17187706
-0.02148932 0.016982134 0.17287062
-0.01859799 0.018227467 0.17093056
0.0041545322 0.018292634 0.17065004
0.0061993762 0.017058756 0.17257313
-0.020368908 0.020496063 0.17400001
-0.017279454 0.022325935 0.17224619
-0.014377146 0.023879973 0.1703462
0.0030424995 0.022639621 0.17184684
0.0054372898 0.020746058 0.17390911
-0.015993292 0.026441995 0.17352493
-0.013104682 0.027846707 0.17134863
-0.00069666817 0.029036993 0.17020001
0.0012732949 0.027287249 0.17204438
-0.011749642 0.032227192 0.17267305
-0.0090005668 0.033274177 0.17070003
0.012268074 -0.0052997544 0.17900001
-0.031605877 -0.00099759025 0.1769153
-0.027536919 -0.0013737722 0.17715889
-0.022504596 -0.0013341613 0.17660744
-0.017549826 -0.0016072501 0.17688297
-0.012463029 -0.0018975934 0.17698295
-0.0075263879 -0.0019679514 0.17687507
-0.0025544621 -0.0022626675 0.17694239
0.0024783288 -0.0024626551 0.17693749
0.0075071356 -0.0027230568 0.17703785
0.012680647 -0.0029395998 0.17685233
0.016340215 -0.0017352456 0.17649998
-0.032978281 0.0024505951 0.17599095
-0.028927071 0.00032374423 0.17500001
0.01427389 0.0030595278 0.17558146
0.016137218 0.0022540004 0.17730302
-0.032260187 0.0072356728 0.17768811
-0.028945727 0.008786357 0.17541671
0.013190337 0.0076491875 0.17681192
0.015483005 0.0060534659 0.17891668
-0.030758165 0.011063774 0.17852381
-0.027810039 0.012775102 0.17673279
-0.024890022 0.01445342 0.17500001
0.0095390426 0.013370294 0.17522222
0.011644361 0.012297096 0.17753066
-0.026348729 0.016976904 0.17781694
-0.023725582 0.017998129 0.17581545
0.0085860575 0.017827345 0.17644581
0.010598019 0.01684138 0.17854542
-0.025271239 0.020602379 0.17900001
-0.022208564 0.022231149 0.17714161
-0.019312028 0.023937816 0.17521054
0.004619902 0.024156367 0.17510001
0.0070546954 0.022295693 0.17712151
-0.020822797 0.026860308 0.17864861
-0.018045453 0.027825657 0.17630555
-0.014980901 0.029684111 0.17500001
0.0037582389 0.027818354 0.17626831
0.0058715744 0.027150042 0.17852172
-0.025601996 -0.005476404 0.18292311
-0.022524027 -0.005606595 0.18334003
-0.017608678 -0.0056195739 0.18325002
-0.012602914 -0.0056146979 0.18309616
-0.0074858563 -0.0057480135 0.18281965
-0.0027295332 -0.0058940584 0.18281673
0.0025198918 -0.0062069274 0.18268186
0.007209613 -0.006508965 0.18251106
0.010780073 -0.0056474167 0.18050002
-0.027044088 -0.0037731326 0.18075477
-0.022515731 -0.0038423017 0.18098496
-0.017518196 -0.0039845272 0.18087281
-0.01255438 -0.0041829515 0.18092681
-0.0075693033 -0.0041732392 0.1805366
-0.0025122953 -0.0043831696 0.18046159
0.0024661266 -0.0045738984 0.18031706
0.0073551354 -0.0047228825 0.18036667
0.01044916 -0.0049518719 0.18000001
0.017540587 0.0031911363 0.18000001
-0.033717319 0.0093208868 0.1800667
0.014695926 0.0094871372 0.18000001
0.016684588 0.0077142604 0.1812439
-0.035045296 0.012881464 0.18400002
-0.032743253 0.012696144 0.18163644
-0.029753558 0.014488885 0.18000001
0.013991091 0.012850176 0.18089291
0.016146384 0.011778566 0.18279169
-0.031594347 0.016693674 0.18306452
-0.028629297 0.017949089 0.18088236
0.012554233 0.017534431 0.1817143
0.015118971 0.015003799 0.18400002
-0.03012534 0.020309638 0.18400002
-0.027124995 0.022333391 0.18214001
-0.024210285 0.023765003 0.18032001
0.0092290128 0.023242231 0.18054765
0.011382864 0.022348288 0.18252055
-0.026030708 0.026497653 0.18335004
-0.0015137423 -0.010561423 0.18892309
0.00085798773 -0.010286482 0.18780001
-0.025342368 -0.0066413288 0.185
-0.021876881 -0.0076768878 0.18698412
-0.01747787 -0.0079237362 0.18704402
-0.012429626 -0.0081919264 0.18706374
-0.0074146488 -0.008401325 0.18700996
-0.0025395062 -0.008468396 0.186866
0.0020994241 -0.0085250959 0.18601237
0.0051137595 -0.008387222 0.185
-0.034847781 0.014697366 0.185
0.016961694 0.013740069 0.18581247
-0.035036154 0.015947033 0.18600002
-0.033196684 0.018160596 0.18567859
0.014549292 0.018393967 0.18575001
0.01654039 0.017333861 0.18728749
-0.032173734 0.022373566 0.1872059
-0.029333964 0.023604359 0.1855
0.013700834 0.022691729 0.18641275
0.015528836 0.021511264 0.18870591
-0.020249598 -0.010008521 0.19000001
-0.016907839 -0.011397586 0.19170505
-0.012522887 -0.011890742 0.19249056
-0.0076352884 -0.012110332 0.19237624
-0.0037336694 -0.011404561 0.19065715
-0.017858827 -0.0096100578 0.19000003
0.017737111 0.019610494 0.19000003
-0.01256079 -0.014106587 0.19523811
-0.0083095729 -0.014770331 0.19500001
