# .PCD v0.7 - Point Cloud Data file format
VERSION 0.7
FIELDS x y z
SIZE 4 4 4
TYPE F F F
COUNT 1 1 1
WIDTH 204
HEIGHT 1
VIEWPOINT 0 0 0 1 0 0 0
POINTS 204
DATA ascii
-0.01105376 0.0095744571 0.15890001
-0.0075472249 0.0094191227 0.15849181
-0.0033181137 0.0093684318 0.15866664
-0.010904795 0.011722786 0.15860376
-0.0074893357 0.012431839 0.15661155
-0.0034015155 0.012277261 0.15762334
-0.0068806782 0.017140465 0.15810826
-0.0042937919 0.01657198 0.15845831
-0.016647391 0.0079945652 0.16341342
-0.012634543 0.0077855862 0.16201237
-0.0074149901 0.0072760032 0.16214672
-0.0022922175 0.0072393068 0.16183017
0.001903285 0.0076073259 0.16293862
-0.015874034 0.011563618 0.16353661
-0.013122555 0.012642141 0.16133088
-0.0010368181 0.012877154 0.16076712
0.0011050723 0.011997289 0.16292217
-0.011645381 0.017070042 0.16246398
-0.0089226821 0.018428277 0.16057143
-0.0022706292 0.017630979 0.16178763
0.00024968263 0.01574087 0.16390912
-0.010585049 0.020930344 0.16376473
-0.0072888783 0.022410685 0.16202685
-0.0036433674 0.021945674 0.16285713
-0.0065057324 0.026388474 0.16371827
-0.0044950312 0.025811961 0.16400003
-0.0034263742 0.030913677 0.16400002
-0.021985034 0.0042580212 0.16829637
-0.017440887 0.0040342472 0.16786246
-0.012431871 0.0039720344 0.16753334
-0.0074919527 0.0038190833 0.16755112
-0.0025489924 0.0036496026 0.16738729
0.002556663 0.0035563919 0.16720638
0.0071155839 0.003540965 0.1681287
-0.021919372 0.007219289 0.16756295
-0.018310975 0.0068534389 0.16536564
-0.012593093 0.0055061402 0.16533329
-0.0077741295 0.0053837863 0.16499998
-0.0028686065 0.0052107698 0.16499999
0.0039387355 0.0070833918 0.16518643
0.0066068196 0.0072046099 0.16745454
-0.020746935 0.011499048 0.16858338
-0.017941466 0.012793031 0.16653548
0.0034596084 0.012789386 0.1665421
0.0055987779 0.011598332 0.1687143
-0.016699899 0.016987171 0.16771002
-0.013984213 0.01812773 0.16568749
-0.00051451311 0.019068401 0.16516666
0.0019382003 0.017250473 0.16720927
-0.015397428 0.020789968 0.16883336
-0.012571595 0.022512212 0.16687235
-0.0095975883 0.024210352 0.16499999
-0.0015264993 0.022960907 0.16607079
0.00071970595 0.021698426 0.16837507
-0.011129305 0.026800675 0.16804349
-0.0079357885 0.028218102 0.16593643
-0.002710735 0.027310021 0.16663648
-0.010214212 0.030084055 0.16900001
-0.0070812339 0.032159977 0.16775373
-0.0030621989 0.032497056 0.16784614
-0.016354926 -4.3013155e-05 0.17400001
-0.012491201 -0.00010740857 0.17400001
-0.0074146967 -0.00022546691 0.17399998
-0.0022664717 -0.00029837419 0.17369998
0.002433131 -0.00040783835 0.17366661
0.0076902714 -0.00052393076 0.17329995
0.012141312 -0.00056157849 0.17364438
-0.030466132 0.002736476 0.17383336
-0.027356563 0.0025540248 0.17225608
-0.022664709 0.0019587148 0.17180437
-0.017557245 0.0016282672 0.17175676
-0.012578856 0.0015370217 0.17158709
-0.0075388434 0.0014026331 0.17145266
-0.0026313551 0.0012381441 0.17142858
0.0022828081 0.0011293296 0.17114283
0.0077963676 0.0014433119 0.17070453
0.011895283 0.0023192726 0.17227949
-0.026928645 0.0071409475 0.17234822
-0.024182472 0.0083590196 0.17042109
0.0088754268 0.0080309166 0.17082351
0.011030787 0.0069716154 0.17301533
-0.025710162 0.011353546 0.17376924
-0.022940021 0.012734091 0.17182505
-0.019900655 0.014753504 0.17
0.0076024253 0.012530801 0.17184499
0.010374534 0.010448074 0.17400001
-0.021462383 0.016961575 0.1729876
-0.018813387 0.018203439 0.17090003
0.004004973 0.018400572 0.17073917
0.0061612185 0.01699378 0.17261034
-0.020328362 0.02067562 0.17400001
-0.017377941 0.022371277 0.17213228
-0.014581935 0.024248876 0.17033333
0.002865073 0.022617057 0.1718182
0.0053309943 0.020704582 0.17400001
-0.016003255 0.026777131 0.17344224
-0.013333866 0.027990106 0.17128725
-0.00092040462 0.028919047 0.17032
0.0012149652 0.027203403 0.17239997
-0.0017355079 0.032303121 0.17097329
0.012080378 -0.0052997544 0.17900001
-0.031739954 -0.0010136148 0.17680305
-0.027539883 -0.0013881749 0.17707416
-0.022474123 -0.0015113978 0.17696679
-0.017601987 -0.001612194 0.176937
-0.012545354 -0.0017567531 0.17688566
-0.0074566291 -0.0020542052 0.17700937
-0.0025201673 -0.0022501482 0.17698137
0.0024775837 -0.002461005 0.17684834
0.007465533 -0.0027206077 0.17702729
0.012560656 -0.0029248684 0.17681061
0.016188785 -0.0016378292 0.17586362
-0.032798283 0.002386987 0.17608869
-0.029294077 0.00032374423 0.17500001
0.014284445 0.0033314119 0.17537151
0.016220147 0.0021697562 0.17668495
-0.031916119 0.0070795808 0.17781322
-0.028970681 0.0085230973 0.1755527
0.013362522 0.0076552234 0.17667328
0.015571088 0.0063740094 0.1787647
-0.030662503 0.010915771 0.17857891
-0.027752595 0.012663428 0.17671178
-0.024890022 0.01445342 0.17500001
0.009504226 0.013685285 0.17533337
0.011808578 0.012331902 0.17746542
-0.026379908 0.016852301 0.17792755
-0.023646152 0.018030843 0.17580889
0.0084932828 0.017794201 0.17645983
0.010661505 0.016578093 0.17854835
-0.025208673 0.020352118 0.17900001
-0.022245362 0.022365775 0.17720689
-0.01929193 0.024036672 0.17544445
0.004585966 0.024133483 0.17520002
0.0068373778 0.022291832 0.17714854
-0.020938946 0.026726393 0.17852628
-0.018303538 0.027743695 0.17639402
0.0037334703 0.027808625 0.17631765
0.005859863 0.026884276 0.17844997
-0.025811462 -0.0053943479 0.18315387
-0.02256752 -0.0054219924 0.18344741
-0.017514555 -0.0055928719 0.18314001
-0.012591035 -0.0056099403 0.18294236
-0.00758701 -0.0057862466 0.18287501
-0.002479875 -0.0061077434 0.18293221
0.002479512 -0.0062642526 0.18279992
0.0071820999 -0.0063759787 0.18209875
0.010859545 -0.0056129294 0.18027276
-0.02708696 -0.0037741067 0.18074079
-0.022566058 -0.0040146923 0.18101896
-0.017464451 -0.0039968705 0.18081814
-0.012423418 -0.0040203296 0.18050002
-0.0073995553 -0.0042610252 0.18050006
-0.0027584266 -0.0044873138 0.18051112
0.0024661261 -0.0045738984 0.18031712
0.0074447668 -0.0047516101 0.18007143
0.010543533 -0.0048574992 0.18000001
0.017432731 0.0039101653 0.18000005
-0.033857569 0.0086349957 0.18037145
0.014790298 0.0097702546 0.18000001
0.016842043 0.0078936331 0.18132053
-0.035141766 0.012109706 0.18400002
-0.032649904 0.012612755 0.18184541
-0.029602563 0.014375637 0.18000001
0.014071458 0.013011541 0.18074004
0.016383601 0.011960593 0.1829394
-0.031395078 0.01678155 0.18350878
-0.028489968 0.017956026 0.18096974
0.0098829241 0.019962495 0.18000001
0.012673547 0.017558347 0.18172547
0.015349876 0.015620399 0.18387501
-0.03002887 0.020213168 0.18400002
-0.027071945 0.02229986 0.18239999
-0.024419656 0.023587529 0.18036845
0.0091319839 0.023023972 0.18076931
0.011443969 0.022177605 0.18281078
-0.0010514491 -0.010616453 0.18900001
0.00051749509 -0.010599937 0.18900001
-0.025277708 -0.006512003 0.185
-0.022001749 -0.007387992 0.18616892
-0.017556041 -0.0079723746 0.18695831
-0.012478007 -0.0080914255 0.18699044
-0.0073921666 -0.0083326651 0.18703003
-0.002582612 -0.008574497 0.18697779
0.0021041043 -0.0085757235 0.18602632
0.0052689505 -0.008270829 0.185
-0.035235759 0.013339449 0.185
-0.034750789 0.014406384 0.185
0.01710663 0.014007029 0.18555558
-0.03503615 0.015361921 0.186
-0.033168912 0.017981179 0.18578467
0.014597918 0.018898491 0.18542857
0.01656463 0.017526442 0.18704227
-0.032053377 0.022290617 0.18748453
-0.02919602 0.023462595 0.18533333
0.01376902 0.022722844 0.18617187
-0.016931131 -0.011042235 0.19116135
-0.012508 -0.011575258 0.19217002
-0.0075031924 -0.011649978 0.19188781
-0.0033542179 -0.011363783 0.19079068
-0.017261134 -0.0096100587 0.19000003
0.017737111 0.019610494 0.19000003
-0.012973254 -0.015373886 0.19750002
-0.012102665 -0.01423215 0.19625714
-0.0084825894 -0.014078264 0.19500004
