# .PCD v0.7 - Point Cloud Data file format
VERSION 0.7
FIELDS x y z
SIZE 4 4 4
TYPE F F F
COUNT 1 1 1
WIDTH 198
HEIGHT 1
VIEWPOINT 0 0 0 1 0 0 0
POINTS 198
DATA ascii
-0.015545228 0.0098308101 0.15900002
-0.012530457 0.0096156746 0.15863635
-0.00788025 0.009473226 0.15879245
-0.015743442 0.012022365 0.15828303
-0.012434412 0.012455195 0.15679546
-0.0082932245 0.012177353 0.15836509
-0.015278468 0.015299389 0.15900001
-0.012658773 0.016845733 0.15834229
-0.0094945021 0.015737576 0.15893334
-0.020230085 0.0087298211 0.16400002
-0.017384063 0.0081040673 0.16238919
-0.012490818 0.0076030223 0.16197959
-0.007303203 0.0073914696 0.16191156
-0.0025499186 0.0077995243 0.16191436
0.001624301 0.0075166337 0.16354063
-0.017674495 0.012302715 0.16149999
-0.0060874065 0.013315481 0.16048048
-0.002751352 0.01218058 0.16221081
0.00060913898 0.01090986 0.16386366
-0.016167589 0.017264439 0.16178082
-0.011711559 0.019027591 0.16016947
-0.0073885545 0.01747526 0.16193405
-0.0039788485 0.015994476 0.16374363
-0.015608801 0.021184515 0.16322224
-0.012430168 0.022431813 0.16186288
-0.0087541593 0.021655023 0.16341968
-0.012499817 0.025961082 0.16381662
-0.021837551 0.0042550857 0.1682601
-0.017369797 0.0039838087 0.16796465
-0.01248252 0.0038433366 0.16780002
-0.0074922103 0.0038191699 0.167551
-0.0024872636 0.0037212686 0.16737148
0.0024956949 0.0036450853 0.16721021
0.007620967 0.00344865 0.16767959
0.011493974 0.0034964245 0.16874999
-0.02180149 0.0070922836 0.16660528
-0.017705886 0.0057246811 0.16550875
-0.012543506 0.0055024521 0.16546507
-0.0077595999 0.0054327878 0.16513886
-0.0025327513 0.0053227204 0.16499999
0.0037352948 0.0074189221 0.16517647
0.0074564135 0.0073703914 0.16714287
0.010908627 0.0060178428 0.16875999
-0.020943953 0.012076254 0.16724077
-0.019347737 0.01352374 0.16549999
-0.0007258823 0.014233333 0.16511109
0.0026835888 0.012629105 0.16662431
0.0062080007 0.011545845 0.16855176
-0.020213008 0.016180633 0.16881819
-0.018579822 0.017723745 0.16714668
-0.0053971335 0.019298607 0.16500001
-0.0022167258 0.017809879 0.16613257
0.0014268071 0.016822416 0.16821423
-0.016923174 0.022504015 0.16707894
-0.0067451191 0.022978537 0.1660662
-0.0031121157 0.021898478 0.16813925
6.400959e-05 0.020337462 0.16900001
-0.015820911 0.026851431 0.16727503
-0.012388662 0.028218523 0.16567212
-0.0078936014 0.027212365 0.16745286
-0.0047561224 0.02540569 0.16900001
-0.01526432 0.030673444 0.16866669
-0.012393024 0.03210628 0.16802713
-0.0090783536 0.031146562 0.16882357
-0.015625112 -4.3013155e-05 0.17400001
-0.0125234 -4.3013155e-05 0.17400001
-0.0073268488 -0.00021870935 0.17399998
-0.0023312392 -0.0003774224 0.17363885
0.002430798 -0.00040761501 0.17357138
0.0075316802 -0.00045576866 0.17337771
0.012532996 -0.00069978274 0.17321301
0.01524617 -0.00016181018 0.171
-0.026494326 0.0024635831 0.17288166
-0.022656247 0.0020102265 0.17180148
-0.017582081 0.0015736494 0.17191505
-0.012520269 0.0013935332 0.17180604
-0.0075371992 0.0014022456 0.17141052
-0.0027003777 0.0013183831 0.17123322
0.0023973805 0.0012107461 0.17116664
0.0073528197 0.0010369702 0.17108569
0.013023981 0.0020576888 0.17047898
0.015952965 0.0027205485 0.17105471
-0.025845295 0.0067106676 0.17278944
-0.024183651 0.008250121 0.17110001
0.0094675673 0.009539417 0.16999999
0.01272077 0.0078135952 0.17123999
0.016128419 0.0070189051 0.17308819
-0.0251127 0.010356847 0.17400001
-0.023163302 0.012681593 0.17198609
0.0046991305 0.014931763 0.17
0.0080720102 0.01302271 0.17097476
0.0117869 0.011851188 0.17303884
-0.021923438 0.017226644 0.17214115
-0.019829353 0.019495202 0.17
0.0034149869 0.018173102 0.17063217
0.007007461 0.017094944 0.17268613
0.010283307 0.015465552 0.17400001
-0.020740353 0.021537332 0.17316127
-0.018921103 0.023017593 0.17093617
-0.0014966041 0.02364237 0.17040679
0.002223708 0.022336332 0.17227505
0.0057284399 0.020801881 0.17389476
-0.017870091 0.027519649 0.17183329
-0.0058067301 0.028735265 0.17025928
-0.0025899161 0.027508689 0.17194124
0.0008699068 0.026395651 0.17366661
-0.030746883 -0.0010482253 0.17839997
-0.027425898 -0.0013717767 0.17716672
-0.022474986 -0.001366326 0.1767247
-0.017567955 -0.0015650826 0.1768221
-0.012495649 -0.0017330882 0.17687032
-0.0074109007 -0.0019965633 0.17685714
-0.0025172685 -0.0022913718 0.17694899
0.0024787271 -0.002462897 0.17700019
0.0076559768 -0.0027999743 0.17699178
0.011105765 -0.002641188 0.17612505
-0.03046813 0.001745489 0.17813042
-0.0288106 0.0024572455 0.17598005
-0.027713062 0.0074157496 0.17684379
0.01695288 0.0092938729 0.17504346
-0.026034752 0.012321152 0.17685187
-0.024604576 0.013168905 0.17500001
0.013641709 0.01342858 0.17559382
0.016336292 0.012488084 0.17652813
-0.025364507 0.016663367 0.17860001
-0.024021298 0.017909788 0.17629415
0.0090359645 0.018581862 0.17524332
0.012477006 0.017390108 0.17704518
0.016102742 0.0162297 0.17881814
-0.022462651 0.022627339 0.17718314
0.0042475909 0.024207221 0.17505555
0.0076961536 0.022690201 0.17671536
0.011095826 0.021506049 0.17846295
-0.021085765 0.027059641 0.17753851
-0.019620221 0.028585207 0.17594118
-0.00030072234 0.029684111 0.17500001
0.0029818558 0.027840439 0.17625952
0.0066943071 0.026782326 0.17837805
-0.030625334 -0.0052073407 0.18328574
-0.027406143 -0.0054386212 0.18366669
-0.02243378 -0.0055983244 0.18335423
-0.017628567 -0.005625396 0.18346158
-0.012476954 -0.0057337484 0.18325423
-0.0076361634 -0.0058116638 0.18285939
-0.0026172083 -0.0059948605 0.18298082
0.0024765467 -0.0062591806 0.18264288
0.0064870166 -0.0062809144 0.18212965
-0.032302894 -0.0028399637 0.18167746
-0.027515147 -0.0038472451 0.18116935
-0.022569938 -0.0038656113 0.18095317
-0.017440515 -0.0040208553 0.18098108
-0.012442996 -0.0040269308 0.18076926
-0.0076031978 -0.0041561997 0.1804318
-0.0027234461 -0.004446099 0.18050002
0.0024661263 -0.0045738984 0.18031703
0.0066172206 -0.0047633275 0.18036845
-0.032237742 0.0024892304 0.18275514
-0.030872244 0.0070244637 0.18300004
-0.029297041 0.0085130418 0.18113045
-0.03002887 0.011723828 0.18400002
-0.028459102 0.012623779 0.18180002
-0.027037688 0.017357109 0.18224286
-0.024846183 0.019962495 0.18000001
0.014538638 0.019710835 0.18000001
0.016566953 0.018269192 0.18058336
-0.02600451 0.021780809 0.18300004
-0.024464184 0.022945914 0.18082762
0.013137715 0.022951107 0.18103036
0.016262261 0.022217672 0.18313041
-0.00094763917 -0.010465457 0.18900003
0.0010821025 -0.010692246 0.18877779
-0.026239803 -0.0067553772 0.18541664
-0.022193432 -0.0076151504 0.18666202
-0.017554618 -0.0080034807 0.18702082
-0.01250976 -0.0081755444 0.18691485
-0.0073221801 -0.0084021324 0.18709365
-0.0025019359 -0.0084609659 0.18679382
0.0021718123 -0.0086427573 0.18635008
0.0052430853 -0.0083225593 0.185
-0.033471439 0.0034152938 0.18513042
-0.032735426 0.0077731078 0.18662713
-0.031520639 0.011784422 0.18787505
-0.029804094 0.013727425 0.185
-0.030337011 0.016425753 0.18880002
-0.02898678 0.018143829 0.18611997
-0.027633777 0.022658249 0.18664584
-0.01657223 -0.010824855 0.19079068
-0.012353377 -0.011761106 0.19231832
-0.0077462997 -0.011623332 0.19212779
-0.0029680433 -0.011553956 0.1915932
-0.015866516 -0.0096100587 0.19000001
-0.01467113 -0.0096100587 0.19000001
-0.034444805 0.0088686226 0.19000003
-0.032930233 0.01306343 0.19076926
-0.032005463 0.017376143 0.19183563
-0.0068483334 -0.013992331 0.19500007
-0.0039078146 -0.013866722 0.1951154
-0.033452172 0.019350024 0.19525002
