# .PCD v0.7 - Point Cloud Data file format
VERSION 0.7
FIELDS x y z
SIZE 4 4 4
TYPE F F F
COUNT 1 1 1
WIDTH 216
HEIGHT 1
VIEWPOINT 0 0 0 1 0 0 0
POINTS 216
DATA ascii
-0.014111394 0.0099641904 0.15900002
-0.015417406 0.011297991 0.15900004
-0.013920851 0.011399215 0.15899999
-0.020230085 0.0085578524 0.16400002
-0.017315345 0.0081722885 0.1625973
-0.012466537 0.0079445895 0.16181456
-0.0075287344 0.0079211472 0.16317865
-0.0047529829 0.0075260447 0.16400002
-0.01698285 0.012227098 0.16156097
-0.01196844 0.012721769 0.16070406
-0.008535129 0.012002034 0.16314541
-0.015913934 0.016994974 0.16299999
-0.0127849 0.017237104 0.16282222
-0.0095146298 0.015577394 0.1639286
-0.013924597 0.020366311 0.16400002
-0.022167593 0.0042688991 0.16851671
-0.017457927 0.0041869325 0.16811429
-0.012418395 0.0040365271 0.16790356
-0.0074410937 0.0039670076 0.1675349
-0.0025029434 0.0037670382 0.16764699
0.0014177832 0.0037542789 0.1686471
-0.02204705 0.0070847259 0.16698465
-0.017813668 0.0057714703 0.16554239
-0.012533551 0.0054985806 0.1653488
-0.0072360504 0.0058780792 0.16517775
-0.0024971669 0.0074665463 0.16626056
0.001043521 0.0067526433 0.16855073
-0.021011189 0.012003843 0.16805664
-0.019110717 0.013441157 0.16621619
-0.0064071105 0.013039644 0.16577661
-0.0031730996 0.01197587 0.16784613
-0.020138014 0.01537556 0.16900001
-0.018118894 0.017579406 0.16711238
-0.010746898 0.0190513 0.16529627
-0.0076675457 0.017382791 0.16706027
-0.0045705899 0.015692957 0.16891669
-0.016325161 0.021963179 0.16717337
-0.012410491 0.022601832 0.16645801
-0.0087925224 0.021588847 0.16841273
-0.015411513 0.026294118 0.16855556
-0.01305964 0.026727529 0.16835292
-0.015625112 -4.3013155e-05 0.17400001
-0.012523401 -4.3013155e-05 0.17400001
-0.006976807 -0.00015248537 0.17400001
-0.0024841572 -0.00022537181 0.1736154
0.0026607923 -0.00029382532 0.17374997
0.0077055339 -0.00052430353 0.17361991
0.010526579 -0.00028628478 0.17400001
-0.026873639 0.002553018 0.1726504
-0.022594528 0.0018877144 0.1719771
-0.017523006 0.0017544248 0.17173772
-0.012566528 0.0015992008 0.17154396
-0.0075714053 0.0015542225 0.17152779
-0.0026561043 0.0013627274 0.17123917
0.0028993702 0.0020224554 0.17074221
0.0073955283 0.0024626413 0.17232412
0.01063084 0.001364487 0.17400001
-0.026368201 0.006915668 0.17275758
-0.024221916 0.0086035682 0.17080003
0.0031058795 0.0079934197 0.17110921
0.0063826977 0.0068116635 0.17319313
-0.02535597 0.010782573 0.17400001
-0.023129206 0.012644981 0.17167465
-0.0013759733 0.013532405 0.1704746
0.0019964103 0.012157754 0.17251395
0.0051746052 0.010356847 0.17400001
-0.021440441 0.017238865 0.17216663
-0.019591285 0.018615413 0.17009999
-0.0057499735 0.01900748 0.17010002
-0.0025612719 0.017499154 0.17185283
0.00066925108 0.016170356 0.17365515
-0.020510085 0.021132095 0.1734286
-0.018494688 0.022748148 0.17131746
-0.0068425066 0.02298741 0.17151198
-0.0038123073 0.021389714 0.17336358
-0.016923031 0.027404876 0.17201367
-0.011708717 0.028542435 0.17055695
-0.008222295 0.02721799 0.17246877
-0.015793221 0.03165077 0.17329998
-0.012584464 0.032370705 0.17253378
-0.0091885449 0.030868391 0.17368186
-0.031734083 -0.0012984021 0.1783611
-0.027465748 -0.0015606432 0.17742868
-0.022468043 -0.0014115516 0.17702706
-0.017524472 -0.0016244364 0.17695858
-0.012496196 -0.0017331286 0.17687036
-0.0074682329 -0.0018848543 0.17682001
-0.0024685869 -0.0021537293 0.17696296
0.0024147753 -0.0023232291 0.17674606
0.0075215171 -0.0027149045 0.17691891
0.012407777 -0.0021792969 0.17637748
0.015371642 -0.00093141227 0.17670001
-0.031426828 0.0020262918 0.1777465
-0.029064206 0.001930957 0.17523338
-0.023054998 0.00032374423 0.17500001
0.009828601 0.0044341958 0.17500001
0.012812445 0.0026548291 0.17648575
0.0155145 0.0018118299 0.17827271
-0.030345116 0.0058268583 0.17866668
-0.028460244 0.0079638315 0.17683831
0.0084013501 0.0080581876 0.17588893
0.011544125 0.0069789379 0.17802063
-0.026678972 0.012474603 0.17731707
-0.024595466 0.013757574 0.17514287
0.0041064452 0.013624198 0.17550007
0.007249977 0.012303 0.17743574
0.010417922 0.010466763 0.17900001
-0.025804993 0.016411696 0.17847997
-0.023761844 0.01787282 0.17598362
-0.00054539205 0.019530319 0.17500001
0.0027836831 0.017660489 0.1766531
0.0059288312 0.016341837 0.17861286
-0.022106821 0.02247427 0.17667419
-0.019605158 0.024399247 0.17500001
-0.0050717806 0.024913052 0.17500001
-0.0019326978 0.022955664 0.17610621
0.0014178823 0.021972751 0.17801112
-0.020913806 0.027030963 0.17790696
-0.019113095 0.027813235 0.17600004
-0.0058245538 0.027891593 0.17560384
-0.0030175918 0.027158896 0.17775212
0.00016164542 0.025388643 0.17900001
-0.031860497 -0.005453005 0.18338241
-0.02743445 -0.0054313676 0.18342111
-0.022452038 -0.0055827741 0.18337506
-0.017558083 -0.0056351842 0.18316981
-0.01270448 -0.0056658559 0.18305452
-0.0075036073 -0.0057972716 0.18296881
-0.0028625142 -0.0059646168 0.18295306
0.0024078721 -0.0061752526 0.18296883
0.0073133153 -0.0061734049 0.18222059
0.010724803 -0.0054112012 0.18020001
-0.036114343 -0.002378305 0.18262267
-0.032981977 -0.0032597557 0.18110718
-0.027520426 -0.0040314961 0.18113731
-0.02257959 -0.0038937137 0.18085718
-0.017473008 -0.0040624812 0.180796
-0.012439542 -0.0040261941 0.18073077
-0.0076711727 -0.004121257 0.18040906
-0.0025521461 -0.004355669 0.18043898
0.0024678421 -0.0045757582 0.18039024
0.0073059998 -0.0047450056 0.18032147
0.01082665 -0.0049518719 0.18000001
-0.035286661 0.0013516151 0.18350001
-0.033433475 0.0032465644 0.1817255
0.014790298 0.0048628794 0.18000001
0.015692584 0.0039769397 0.18014289
-0.031856876 0.0074575664 0.18251427
-0.029753558 0.0097702546 0.18000001
0.013763354 0.0081630899 0.18065724
0.015508407 0.0075488971 0.18155177
-0.030656159 0.011880757 0.18313639
-0.029002694 0.012801682 0.18109095
0.0092986086 0.013911229 0.18025002
0.012455827 0.012470805 0.1821323
0.015469191 0.011779504 0.18376
-0.03002887 0.015003799 0.18400002
-0.027433313 0.017506486 0.18187302
0.0048811771 0.019679377 0.18000001
0.0079707922 0.017702805 0.18142013
0.011166755 0.016591571 0.18350004
-0.026067669 0.022154381 0.18333338
-0.024311488 0.023229249 0.18116669
0.0035499402 0.023090085 0.18082616
0.0065004914 0.02193002 0.18291856
-0.025258005 0.025703177 0.18400002
-0.0025047867 -0.01035221 0.18900001
0.0019355596 -0.01033656 0.18871431
-0.030502453 -0.0064861379 0.185
-0.027094064 -0.0074454728 0.18643753
-0.022544766 -0.0080757532 0.18717141
-0.017468398 -0.0079434067 0.18688764
-0.01243426 -0.0081171645 0.18695094
-0.0073897038 -0.0083866781 0.18696815
-0.0024395736 -0.008532742 0.18699996
0.0023392972 -0.0086074192 0.18641116
0.0059465086 -0.0080853291 0.18521741
-0.037226401 -0.00014278824 0.18525
-0.036440313 0.0025040838 0.18619563
-0.034847781 0.004415995 0.185
-0.03582754 0.0069423676 0.18790002
-0.034020938 0.0080217281 0.18617141
-0.035204884 0.010258767 0.18900001
-0.032759711 0.012473416 0.18743061
0.014554514 0.014438715 0.185
0.01568586 0.014225705 0.18572728
-0.031187315 0.01706926 0.18816285
-0.029146522 0.018572226 0.18574999
0.013101175 0.017885383 0.1861819
0.015559996 0.017548256 0.18840007
-0.030250326 0.020762438 0.18900001
-0.028222781 0.022507397 0.18642189
0.0086473906 0.023169778 0.18573137
0.011898406 0.022077451 0.18767346
-0.021229101 -0.011115663 0.19141461
-0.017520549 -0.011666274 0.19217603
-0.012561884 -0.011491667 0.1920851
-0.0075947102 -0.011341502 0.19145249
-0.0025415851 -0.011860031 0.19188064
0.00097295817 -0.011209401 0.19008699
-0.020249598 -0.0096100587 0.19000001
-0.018257286 -0.0096100578 0.19000003
-0.036385078 0.0093114497 0.19033335
-0.036075622 0.012688169 0.19261539
-0.034459781 0.013455261 0.1906154
-0.03331127 0.017784819 0.19165571
0.016010443 0.018813573 0.19000003
-0.013284726 -0.015257122 0.19600001
-0.0085128155 -0.015514235 0.19770001
-0.004447259 -0.015257123 0.19600002
-0.015057212 -0.01374796 0.19500001
-0.012714569 -0.014001341 0.19553494
-0.0075389473 -0.014037585 0.19616665
-0.0036713693 -0.014000226 0.19546671
-0.036731448 0.014673922 0.19500001
-0.035944134 0.017321281 0.19628128
