# .PCD v0.7 - Point Cloud Data file format
VERSION 0.7
FIELDS x y z
SIZE 4 4 4
TYPE F F F
COUNT 1 1 1
WIDTH 78
HEIGHT 1
VIEWPOINT 0 0 0 1 0 0 0
POINTS 78
DATA ascii
-0.017178874 -0.026999658 0.21855173
-0.012566517 -0.027468815 0.21899991
-0.0072693005 -0.027424749 0.21899991
-0.0022179091 -0.027403593 0.21899988
0.0026227396 -0.027255435 0.21879627
0.0075919046 -0.027624957 0.2186
0.012499378 -0.027803941 0.21857435
0.017360022 -0.02795648 0.21881819
-0.0185489 -0.024085606 0.2183437
-0.00047470242 -0.024724213 0.21900003
0.0014428244 -0.024724213 0.21900001
-0.017064303 -0.030187894 0.22000001
-0.016853517 -0.028825877 0.22000001
-0.012477917 -0.025270272 0.22000003
-0.0084435958 -0.025193829 0.22000001
0.0045171967 -0.025193829 0.22000001
0.0075493078 -0.025223557 0.22000001
0.012738721 -0.025363695 0.22
0.017803894 -0.025442602 0.22067997
-0.017003313 -0.022042524 0.22092094
-0.012475655 -0.022412023 0.22105315
-0.0074448511 -0.022385206 0.22114177
-0.0024624749 -0.022380238 0.22134884
0.0026432096 -0.022346776 0.22154695
0.0075516449 -0.022496827 0.22153898
0.012516693 -0.022474093 0.22168192
0.017297817 -0.022605242 0.22206776
-0.017516971 -0.017609797 0.22294737
-0.012876795 -0.018554391 0.22335927
-0.0076465313 -0.01891746 0.22370586
-0.0023457648 -0.018805934 0.22379996
0.0027345626 -0.018805927 0.22379997
0.0075462395 -0.018932609 0.22400001
0.012356514 -0.018820396 0.22379629
0.016468009 -0.019107398 0.22392309
0.019363524 -0.020892853 0.22533335
0.020119831 -0.021210549 0.22700001
-0.01639769 -0.015522267 0.22542103
-0.012235346 -0.016176423 0.22552629
-0.0074550337 -0.016501339 0.22543485
-0.0025606032 -0.016311208 0.22543947
0.0024413238 -0.016345225 0.22542861
0.0074281394 -0.0164067 0.22550008
0.012527505 -0.01631121 0.22543947
0.017737998 -0.017139232 0.22571115
0.020119831 -0.016977755 0.22700001
-0.017072063 -0.012532316 0.22760445
-0.012548568 -0.012510778 0.22784424
-0.0075795869 -0.012735902 0.22777463
-0.0025720941 -0.012747844 0.22773856
0.0024816482 -0.012596238 0.22783782
0.0074685831 -0.012761425 0.22768459
0.012490677 -0.012575307 0.22784223
0.01722374 -0.012532589 0.22810283
0.020297099 -0.012114628 0.22900002
-0.016674977 -0.0098867556 0.22900002
-0.014606238 -0.0098867547 0.22900002
-0.0076215761 -0.010302863 0.23
-0.0026344385 -0.010302864 0.23
0.00043378788 -0.010302862 0.23
0.007299155 -0.010302864 0.23
0.019080466 -0.010427173 0.23
-0.016805561 -0.0072288639 0.23093827
-0.012488537 -0.0073924959 0.2312254
-0.0075846966 -0.0073863072 0.23152146
-0.0025297336 -0.0075191786 0.23172039
0.0024988989 -0.0074930536 0.23162827
0.0074251378 -0.0075171613 0.23156142
0.012495205 -0.0074440246 0.23136139
0.017619837 -0.0074418522 0.23173499
-0.016919499 -0.0032769097 0.23337738
-0.012703019 -0.0036593131 0.23364289
-0.0078210803 -0.004009251 0.23386848
-0.0022146031 -0.0045739426 0.234
0.0026546116 -0.0042848615 0.23400006
0.0075637661 -0.00399588 0.23372978
0.012460878 -0.0038385158 0.23359585
0.020320846 -0.0053192805 0.23500001
