# .PCD v0.7 - Point Cloud Data file format
VERSION 0.7
FIELDS x y z
SIZE 4 4 4
TYPE F F F
COUNT 1 1 1
WIDTH 73
HEIGHT 1
VIEWPOINT 0 0 0 1 0 0 0
POINTS 73
DATA ascii
0.059216842 -0.085792921 0.31114289
0.062548861 -0.085873932 0.31099999
0.067356266 -0.085761473 0.31105882
0.07075572 -0.085711591 0.31200001
0.077394098 -0.085284248 0.31299999
0.08367525 -0.085251234 0.31285715
0.088313982 -0.085260063 0.31220004
0.058942024 -0.082385764 0.31268752
0.062347997 -0.082492121 0.31173685
0.067284405 -0.082557715 0.31227002
0.072392486 -0.082478948 0.31298354
0.07733728 -0.082210951 0.31354228
0.082335323 -0.082430467 0.3137902
0.087579794 -0.082841799 0.31310767
0.090437844 -0.08209388 0.31350005
0.059906483 -0.079234958 0.31400001
0.062901549 -0.078762345 0.31362861
0.067461692 -0.078883126 0.31361768
0.071956001 -0.079060622 0.31384221
0.084102839 -0.080508813 0.31500003
0.087167382 -0.080508821 0.31500003
0.091764189 -0.080792576 0.31500003
0.059270859 -0.077465706 0.31649998
0.062170781 -0.076623864 0.3154999
0.067662314 -0.076426253 0.31527272
0.072782122 -0.077056751 0.31569555
0.077360049 -0.077284507 0.31625006
0.082444787 -0.07747367 0.31662327
0.087222338 -0.077833049 0.31635076
0.091328144 -0.078492627 0.31562501
0.059590995 -0.074556418 0.3186667
0.06277971 -0.073365077 0.31781256
0.067488477 -0.0732098 0.31722924
0.072411217 -0.073162295 0.3179616
0.077149339 -0.072969384 0.3184182
0.082159087 -0.073414646 0.31870592
0.08539249 -0.073920302 0.31900001
0.058283921 -0.075214453 0.32000002
0.089588717 -0.075041495 0.32000002
0.090626441 -0.075041495 0.32000002
0.05889849 -0.072298974 0.32133338
0.061967772 -0.071035326 0.32051516
0.067411937 -0.070791498 0.32073084
0.072048321 -0.070470981 0.32057902
0.077957511 -0.07054469 0.31999999
0.082762547 -0.070889607 0.32024136
0.087755889 -0.071945399 0.32036197
0.091578633 -0.072023585 0.32082763
0.059355676 -0.069083326 0.32320002
0.062444843 -0.067298591 0.32299998
0.067399904 -0.067530058 0.32298192
0.072520368 -0.067675278 0.32272735
0.077448726 -0.067878544 0.32183602
0.082633033 -0.067579091 0.32234007
0.087520175 -0.06795878 0.32200012
0.092208341 -0.067455888 0.32295009
0.06316524 -0.064421833 0.32400003
0.066279806 -0.064421825 0.324
0.059361435 -0.066978142 0.32553339
0.068987481 -0.065674596 0.32500002
0.072860718 -0.065674596 0.32500002
0.075706363 -0.065674596 0.32500002
0.083501108 -0.065543346 0.32540002
0.088515833 -0.06599889 0.32500005
0.090988532 -0.065938085 0.32500002
0.059069332 -0.062882811 0.32694128
0.062277388 -0.062352281 0.32598171
0.06749931 -0.062501051 0.32626325
0.072494961 -0.06268689 0.32650003
0.077225693 -0.062527992 0.32688239
0.082530707 -0.062410999 0.32745448
0.087679535 -0.063047148 0.32625994
0.090218529 -0.062653914 0.32666668
