# .PCD v0.7 - Point Cloud Data file format
VERSION 0.7
FIELDS x y z
SIZE 4 4 4
TYPE F F F
COUNT 1 1 1
WIDTH 217
HEIGHT 1
VIEWPOINT 0 0 0 1 0 0 0
POINTS 217
DATA ascii
-0.0069933352 0.0095217964 0.1589545
-0.0046821744 0.0095936907 0.15900002
-0.007208515 0.011942721 0.15862785
-0.0045680599 0.01129799 0.15899998
-0.012129034 0.0079578003 0.16261376
-0.0075291214 0.0074767619 0.16197316
-0.0024533619 0.0076203039 0.16195312
0.0010068632 0.0075577386 0.16361354
-0.011165647 0.011956948 0.16245973
-0.0080103008 0.013945877 0.16076922
-0.0024872683 0.012466636 0.16177137
0.00035308002 0.010849774 0.16384616
-0.010393526 0.015367779 0.16400002
-0.0071789632 0.017305648 0.16220859
-0.0035341387 0.016922424 0.16323952
-0.0066151153 0.021043083 0.16376925
-0.0047529829 0.020423636 0.164
-0.017053202 0.0040820567 0.16824618
-0.012475955 0.004013496 0.16759306
-0.0074927621 0.0038194885 0.16756125
-0.0024954132 0.0036956889 0.16735524
0.0025603417 0.0035148025 0.1672768
0.0069922544 0.0033999598 0.16836624
-0.016791116 0.0071942159 0.1670326
-0.01308968 0.0063178143 0.16531247
-0.0077419383 0.0054559573 0.16518418
-0.0029172322 0.0052266004 0.16499999
0.0034329058 0.0074242619 0.16577536
0.0064286315 0.007036624 0.16812499
-0.015813032 0.011478744 0.16845457
-0.013534208 0.012815922 0.16628723
-0.0004722834 0.014178019 0.16500001
0.0023098378 0.012438532 0.16690569
0.005301571 0.01078777 0.16900001
-0.011892827 0.01732911 0.16718493
-0.0095508536 0.018666962 0.16518749
-0.00149697 0.017987695 0.16601066
0.0010877623 0.016886044 0.1681795
-0.010807755 0.021406995 0.16841669
-0.0077196942 0.023034375 0.16641098
-0.0028144668 0.022303959 0.16728126
6.400959e-05 0.020514674 0.16900001
-0.0068294718 0.027165292 0.16802382
-0.0041315062 0.026786096 0.16860381
-0.0059611551 0.030216966 0.16900001
-0.01708474 -4.3013159e-05 0.17400002
-0.0125234 -4.3013155e-05 0.17400001
-0.006988971 -0.00016464897 0.17400001
-0.0022534779 -0.00034150635 0.17372724
0.0024299314 -0.00040750331 0.17352374
0.0075705368 -0.00056911894 0.17316662
0.012387309 -0.00072413182 0.17352451
0.015118329 -0.00031669374 0.17400001
-0.02218822 0.0025492059 0.17257233
-0.01770992 0.0018639528 0.17169115
-0.012535774 0.0015714822 0.17167857
-0.0075395871 0.0014026294 0.17146315
-0.0026946175 0.0012927681 0.17128412
0.0022995577 0.0010898111 0.17108098
0.0079833884 0.0016040828 0.1706896
0.012155653 0.0023798216 0.17231411
0.015148739 0.00074761966 0.17400001
-0.021356855 0.0069709658 0.17263514
-0.019098032 0.0081646582 0.1707174
0.0085634897 0.0080451788 0.17095502
0.011254877 0.0068044011 0.17313509
-0.020295924 0.0109407 0.17400001
-0.017756941 0.012664236 0.17181987
-0.014909393 0.014931763 0.17
0.0043258765 0.013950843 0.17011113
0.0072894339 0.01241016 0.17210889
0.010283307 0.010356847 0.17400001
-0.016338278 0.017016275 0.17273971
-0.014177538 0.018069182 0.17069568
0.0033282286 0.017871749 0.17123586
0.0059971991 0.016775128 0.17329994
-0.015406166 0.020537768 0.17400001
-0.012729832 0.022619344 0.17179817
-0.0099181328 0.024914287 0.17
-0.0007732113 0.023844765 0.17021741
0.0020306371 0.022233173 0.1722448
0.0051746052 0.020026896 0.17400001
-0.011315604 0.027115965 0.17284718
-0.0091434084 0.028037695 0.17053194
-0.0019577506 0.027779222 0.17130646
0.00071489578 0.026837992 0.17330429
-0.010351685 0.03058438 0.17385717
-0.0073456997 0.032425117 0.17187312
-0.0033236833 0.0321141 0.17266087
0.016585097 -0.0053623202 0.17900001
-0.030339047 -0.0011704289 0.17900001
-0.027406693 -0.0013038372 0.17796946
-0.022417312 -0.0014043312 0.1770364
-0.01757665 -0.0016844987 0.17715739
-0.012463742 -0.001778601 0.17677696
-0.0075032385 -0.001926747 0.17675219
-0.0025654081 -0.0023470116 0.17700937
0.002555551 -0.0025475433 0.17692381
0.0075091831 -0.0027825956 0.1769814
0.012560795 -0.0031354544 0.17703539
0.017486339 -0.0024491444 0.17704047
0.020470904 -0.0016315408 0.17834997
-0.026954805 0.002347359 0.17704435
-0.024253882 0.0014247582 0.175
0.014439626 0.0039972533 0.17513335
0.017424917 0.0024486438 0.17723291
0.02050966 0.0011843105 0.17900002
-0.025914332 0.0065469686 0.17818418
-0.023516828 0.0079751527 0.17621797
0.013424875 0.0078711528 0.17623471
0.016162522 0.0067409426 0.17838886
-0.022001911 0.01231536 0.17688888
-0.019560609 0.014116098 0.17511111
0.0094357738 0.013552322 0.17519999
0.012099545 0.01234706 0.17736231
0.015083523 0.010091368 0.17900001
-0.020912278 0.016368629 0.17841376
-0.018588863 0.017871842 0.17630267
0.0082269954 0.017824518 0.17630194
0.010891042 0.016620252 0.17836361
-0.01695762 0.022356039 0.17725249
-0.014520244 0.023730997 0.17523079
0.0042034555 0.023593187 0.17552945
0.0067998744 0.022147764 0.17747667
-0.015900653 0.026506769 0.17852937
-0.013653769 0.027888 0.17664477
0.0031195879 0.027689895 0.17673393
0.0057861726 0.026359683 0.17879164
-0.025917685 -0.0055094175 0.18345004
-0.022512686 -0.0054645087 0.18353851
-0.017629405 -0.0056253131 0.18346153
-0.012560387 -0.0056333891 0.18311323
-0.0076063671 -0.0058031208 0.18296924
-0.0025746727 -0.0061037987 0.18303169
0.0023672841 -0.0061792908 0.18272308
0.0075475252 -0.0062791742 0.18252629
0.012218515 -0.0064172484 0.18198736
0.015555812 -0.0057110782 0.18012503
-0.031113843 -0.0018209573 0.18064104
-0.027429704 -0.0036834637 0.18085724
-0.022646453 -0.0038907242 0.18091807
-0.017469216 -0.004013191 0.18077783
-0.012577629 -0.0040717488 0.18066669
-0.0076386705 -0.0041558249 0.18052387
-0.0025813947 -0.0045286277 0.18046154
0.0022735223 -0.0046457038 0.18030551
0.0076179816 -0.0047631264 0.18000002
0.012363574 -0.0049249083 0.18000004
0.015167789 -0.0049518719 0.18000001
-0.031075509 0.0024358346 0.18266669
-0.029289892 0.0034093647 0.18071432
0.019364446 0.0043848935 0.18009093
0.020580988 0.003733204 0.18080957
-0.03046529 0.0061583109 0.18391669
-0.027929515 0.0077802432 0.18197727
0.018204486 0.007965601 0.1812737
0.02068937 0.0077284793 0.18356252
-0.026365226 0.012120849 0.18262121
-0.024191409 0.013278456 0.1807429
0.014324762 0.013518691 0.1804667
0.01694403 0.012144649 0.18246222
0.020328335 0.010373251 0.18400002
-0.02547179 0.016083011 0.18383336
-0.022789452 0.017690191 0.18167675
0.013033102 0.017792275 0.18149057
0.015728751 0.016490348 0.1836552
-0.02136204 0.02206805 0.18245713
-0.019163027 0.023185525 0.18052942
0.0090774586 0.023164818 0.18055773
0.011777926 0.022076281 0.18265553
-0.020556374 0.025721073 0.18383335
-0.0021084219 -0.010572412 0.18900006
0.0030839574 -0.010391846 0.18900001
0.0065781386 -0.010645934 0.18839131
-0.026312308 -0.0062533524 0.185
-0.02196018 -0.0072051925 0.18605092
-0.017473109 -0.0080789663 0.18723992
-0.012524464 -0.0081208702 0.18703923
-0.007344746 -0.0084247971 0.18704179
-0.0025939455 -0.0085929697 0.18693262
0.0024197358 -0.008666791 0.18672523
0.0073970021 -0.0087571861 0.18628915
0.010537622 -0.008737688 0.18535715
-0.032002628 0.0042866697 0.185
-0.031298865 0.0080104293 0.18622725
-0.029605409 0.0092731528 0.18514286
-0.03085071 0.012042933 0.18837841
-0.028709497 0.01283305 0.18615
0.019124128 0.013474667 0.18541022
0.020609489 0.012518259 0.18595836
-0.030052142 0.015213329 0.18900001
-0.027239991 0.017357569 0.18713795
-0.024653386 0.019306203 0.18516669
0.017840696 0.017690742 0.18670641
0.020622551 0.016225232 0.18893339
-0.025909374 0.021777401 0.18833338
-0.023684021 0.022985937 0.18633901
0.013971101 0.023111794 0.18566038
-0.01639474 -0.011002623 0.19056821
-0.012376923 -0.011492737 0.19180851
-0.0075861756 -0.011521053 0.19165555
-0.0030000308 -0.011809773 0.19202438
0.002053892 -0.011694597 0.1911594
0.0052519692 -0.01160237 0.19000001
-0.032601919 0.0099145845 0.19000001
-0.031804997 0.01306034 0.19000004
-0.031063301 0.017424928 0.19209522
-0.029246185 0.01859279 0.19050002
0.01991537 0.019397981 0.19000001
0.020829933 0.018661778 0.19000004
-0.0061295726 -0.015350533 0.19720002
-0.0026645681 -0.015518374 0.19684213
7.385722e-05 -0.015179279 0.19500001
-0.011391605 -0.013882248 0.19527778
-0.007206155 -0.014171362 0.19648655
-0.0024125781 -0.014109595 0.19602001
0.00040101548 -0.014156908 0.19500004
