# .PCD v0.7 - Point Cloud Data file format
VERSION 0.7
FIELDS x y z
SIZE 4 4 4
TYPE F F F
COUNT 1 1 1
WIDTH 134
HEIGHT 1
VIEWPOINT 0 0 0 1 0 0 0
POINTS 134
DATA ascii
0.015813362 -0.025289668 0.20900001
-0.00025914499 -0.021083193 0.20857145
0.0029910591 -0.021533675 0.20666672
0.0076903026 -0.021692863 0.20690095
0.01254038 -0.02223411 0.20785952
0.017107436 -0.022841197 0.20875414
0.020354396 -0.024001911 0.20900002
-0.00011387038 -0.019481126 0.2085
0.0028087436 -0.0174649 0.20655552
0.0073518273 -0.017358424 0.20748928
0.011947908 -0.01840744 0.20861535
0.01558744 -0.019641619 0.20900002
0.0031230294 -0.013234591 0.20848528
0.0062079686 -0.013935362 0.20885718
-0.00011687415 -0.025547694 0.21400002
0.0025860053 -0.025887869 0.21333332
0.0070837294 -0.025943942 0.2127948
0.023759631 -0.025109962 0.21033333
0.027859369 -0.025626875 0.21149996
0.032647081 -0.026080988 0.21263462
0.036289725 -0.026536107 0.21376672
-0.0007672169 -0.023356704 0.21244445
0.002047596 -0.023992298 0.21141021
0.0069595021 -0.024310902 0.21070588
0.019168135 -0.021198798 0.2100345
0.022700194 -0.022398043 0.21067499
0.027446307 -0.022564033 0.2119747
0.032334313 -0.0229955 0.21327189
0.035888474 -0.024139319 0.214
-0.00079948769 -0.019715535 0.21100001
0.0094194366 -0.015280662 0.21000001
0.0130477 -0.016339973 0.21039139
0.017571203 -0.017457614 0.21151128
0.022258641 -0.01794856 0.21285
0.026875744 -0.019324999 0.21376933
0.030418275 -0.019857055 0.21400002
0.0026910203 -0.011246259 0.21048838
0.0078341719 -0.012127169 0.21083812
0.012463467 -0.012653492 0.21225806
0.016973045 -0.013525005 0.21356519
0.02052905 -0.014574127 0.214
0.0029899487 -0.0076902728 0.21235929
0.0071732569 -0.0080639645 0.21305256
0.011500619 -0.0092792818 0.21386674
0.0032538893 -0.0047282772 0.21400002
0.0050879805 -0.0047282772 0.21400002
-0.0016177287 -0.027035719 0.21720456
0.00038198152 -0.027021626 0.21585716
0.011643062 -0.02764689 0.21725002
0.038090374 -0.025838528 0.2161818
-0.0021323501 -0.023514241 0.21640001
0.033601619 -0.020699931 0.21509092
0.037328526 -0.022167483 0.21654218
-0.0021374763 -0.018216943 0.2186154
0.024077205 -0.016060347 0.21510524
0.027827216 -0.017115414 0.21582788
0.032521438 -0.017498251 0.2168549
0.036760963 -0.018023185 0.21830001
-0.0011848976 -0.014426385 0.21900001
0.014524274 -0.010676771 0.215
0.018052319 -0.011311785 0.21560937
0.022656463 -0.012504214 0.2165117
0.027257046 -0.013022664 0.21799043
0.031529076 -0.014140256 0.21885185
0.00069708627 -0.0074329493 0.21533334
0.0084699523 -0.0058789607 0.21516132
0.012772311 -0.0072069238 0.21589513
0.017357262 -0.0075773201 0.21755734
0.021949003 -0.0085853739 0.21858467
0.025565788 -0.0096917506 0.21900003
0.0029420257 -0.0024321813 0.21579164
0.0074907183 -0.0025222322 0.21665844
0.012185553 -0.0029956687 0.21813865
0.016080141 -0.0042851171 0.21885005
0.0032614598 0.001741012 0.21824637
0.0069457651 0.0010441878 0.21868621
-0.0053243972 -0.030835234 0.22383335
-0.004142134 -0.03087317 0.22366667
-0.0052869446 -0.028058624 0.22318184
-0.0038613472 -0.027712572 0.22144836
-0.0052072033 -0.024925489 0.22400001
-0.0038977703 -0.023761299 0.2225385
-0.0026608941 -0.016914347 0.22135718
0.038349394 -0.016317982 0.22012495
-0.0020113578 -0.013952016 0.22183335
0.028723702 -0.010898086 0.22008693
0.032879345 -0.012152798 0.22085108
0.037229124 -0.012585769 0.22194125
-0.00074737438 -0.0066358442 0.22300003
0.01973721 -0.0054553775 0.22000001
0.02311326 -0.0065251635 0.22043343
0.02759644 -0.0076150494 0.22163799
0.032199875 -0.0080395527 0.22311696
0.036916934 -0.0090634692 0.22368288
-0.00084874523 -0.0047676223 0.22400001
0.013651055 -0.00092349807 0.22015385
0.017823191 -0.0023045465 0.22100975
0.022436922 -0.0027564783 0.22253093
0.026993707 -0.0037995079 0.22368516
0.030296069 -0.0048584235 0.22400001
0.002642819 0.0037584815 0.22029628
0.0080359811 0.0032685548 0.22056332
0.012515914 0.0024287987 0.22178511
0.020883009 0.00055938092 0.22400001
-0.0071368325 -0.03212909 0.22679593
-0.0048656235 -0.031968463 0.22500001
-0.0066248556 -0.02744256 0.22695129
-0.0055965902 -0.02359218 0.22800003
-0.0042518694 -0.022488425 0.22557147
-0.0040217866 -0.015593068 0.22714289
-0.0038381871 -0.013971186 0.22900002
0.033850964 -0.0061471709 0.22508693
0.037502453 -0.0064774593 0.22674628
0.024274876 -0.00063900813 0.22500001
0.028046237 -0.0016431755 0.2254287
0.032549419 -0.0025642226 0.22665143
0.03671271 -0.0030282373 0.22831824
-0.0075039389 -0.026111191 0.23133335
-0.0065894923 -0.022608344 0.23219353
-0.0049845604 -0.02060282 0.23050001
-0.0059186318 -0.016667524 0.23190001
-0.0049845609 -0.01624139 0.23050003
-0.0056094648 -0.013278559 0.23316669
-0.0041113696 -0.012116617 0.23204549
-0.0035425709 -0.0082055265 0.23400001
-0.0031631514 -0.0047907531 0.23400001
-0.0073176413 -0.020425953 0.23580001
-0.0072612017 -0.019140052 0.23666668
-0.0059606005 -0.011398695 0.23660003
-0.0047108345 -0.010357903 0.23550001
-0.0053942269 -0.0074764234 0.23755556
-0.0042470419 -0.0073123849 0.23552182
-0.0067606457 -0.010967379 0.2405
-0.0064965282 -0.0090775453 0.24033335
