# .PCD v0.7 - Point Cloud Data file format
VERSION 0.7
FIELDS x y z
SIZE 4 4 4
TYPE F F F
COUNT 1 1 1
WIDTH 217
HEIGHT 1
VIEWPOINT 0 0 0 1 0 0 0
POINTS 217
DATA ascii
-0.01094362 0.0097021936 0.15900002
-0.0085971216 0.0096554412 0.15899998
-0.010799952 0.011675134 0.15865907
-0.0085796118 0.01233323 0.15862225
-0.01661142 0.0081843976 0.16337627
-0.012526711 0.0079013258 0.16195077
-0.0072669899 0.0077482164 0.1618623
-0.0033278062 0.0079128621 0.16306032
-0.015944846 0.011451558 0.16354765
-0.012999306 0.012610534 0.16143149
-0.0060759215 0.012613526 0.1609029
-0.0038820419 0.011831013 0.16289856
-0.011551129 0.016991325 0.16271427
-0.0076673902 0.017294481 0.16191609
-0.0047529829 0.015264599 0.164
-0.010341936 0.020509619 0.164
-0.0083778817 0.021101326 0.16360003
-0.025099915 0.0047429139 0.16900001
-0.022292849 0.0042258501 0.1685385
-0.017372653 0.0041197846 0.16794519
-0.012445014 0.0039912472 0.16784088
-0.0074936529 0.0038200857 0.16758153
-0.0025061849 0.003687938 0.16751854
0.0015361345 0.0037617672 0.16831505
-0.025099915 0.0054517575 0.16900001
-0.02208806 0.0072259465 0.16765305
-0.018164199 0.006785077 0.16548084
-0.012700804 0.0055643208 0.16553184
-0.0076111536 0.0054949299 0.16523807
-0.0015305005 0.0069145043 0.16534446
0.0012885941 0.0071542705 0.16772117
-0.020795736 0.011181563 0.16858067
-0.017889729 0.012816672 0.1666161
-0.014816916 0.014838626 0.16500001
-0.0017926933 0.012796285 0.16657861
0.00038743834 0.011347638 0.16878259
-0.016496256 0.017001599 0.16789535
-0.013823026 0.018042834 0.16584931
-0.0054690591 0.018552894 0.16527997
-0.0032222765 0.017244078 0.16740003
-0.01537864 0.020514674 0.16900001
-0.012212903 0.022327457 0.16696532
-0.0070658852 0.022969697 0.16618052
-0.0043021669 0.02155898 0.16848722
-0.010959606 0.026567809 0.16820413
-0.007972979 0.027287005 0.16793054
-0.0084421057 0.030084055 0.16900001
-0.015807565 -4.3013151e-05 0.17400001
-0.0125234 -4.3013155e-05 0.17400001
-0.0070605208 -0.00010740857 0.17400001
-0.0022545352 -0.00034152137 0.17378785
0.0024313065 -0.00040767071 0.17359516
0.0068198019 -0.00038338776 0.17373332
-0.030675283 0.0026404478 0.17368416
-0.027380615 0.0025101278 0.17208929
-0.022538895 0.0018305861 0.17184375
-0.017578311 0.0017057443 0.17176281
-0.012574079 0.0015489419 0.1717182
-0.0075228568 0.0013965892 0.17168748
-0.0026601823 0.001286846 0.17139536
0.0028886627 0.0019425204 0.17086174
0.0066892239 0.0023252189 0.17254843
-0.030221403 0.0052481443 0.17400001
-0.027133089 0.0072052209 0.1723821
-0.02415783 0.0088537568 0.17040744
0.0036113043 0.0079985177 0.17127587
0.0057999771 0.0064012879 0.17329995
-0.025851173 0.011056492 0.17375003
-0.022788724 0.012708775 0.17172503
-0.019811526 0.014664372 0.17
-0.00029213028 0.014753504 0.17
0.0021857012 0.012423115 0.1720424
-0.021333436 0.016875204 0.17288458
-0.018599449 0.018130571 0.17094515
-0.0010141402 0.018110601 0.17067273
0.00089140516 0.017022401 0.17277269
-0.020095225 0.020300576 0.17400001
-0.017173328 0.022303995 0.17221241
-0.014337699 0.023881482 0.17025928
-0.0023654748 0.022606114 0.17231406
0.00029397043 0.020619869 0.17400001
-0.015796032 0.026334435 0.17351724
-0.013058763 0.027842233 0.17142591
-0.0058212513 0.028167812 0.17083786
-0.0039426973 0.026985819 0.17268419
-0.011640975 0.032105606 0.1727234
-0.0075186235 0.03235298 0.17184478
-0.004617074 0.030852485 0.17400001
-0.035879433 -0.0008203442 0.17788
-0.032391943 -0.0013251891 0.17734313
-0.027473347 -0.0013475714 0.17701879
-0.02243709 -0.0014950602 0.17704272
-0.017582703 -0.001582864 0.17687832
-0.012537765 -0.0017185417 0.17677775
-0.007493739 -0.0018896355 0.17684744
-0.0025424894 -0.0022490635 0.17708908
0.0024777364 -0.0024623603 0.17695533
0.007656889 -0.002454462 0.17680492
0.01182562 -0.0023055044 0.17803946
-0.035964664 0.0019034917 0.17824997
-0.032973133 0.0024100249 0.17594691
-0.02966108 0.00032374423 0.17500001
-0.024890022 0.00032374423 0.17500001
0.0090893097 0.0030440448 0.17573918
0.010882654 0.0022163868 0.17790002
-0.031923052 0.0070718615 0.17740601
-0.029043965 0.0088549135 0.17546432
0.0077981749 0.0076324227 0.17682119
0.010319043 0.0056443634 0.17883335
-0.030632641 0.010922489 0.17866665
-0.02776511 0.012774039 0.17691454
-0.02474322 0.014343319 0.17500001
0.0042277221 0.013337945 0.1756586
0.0064027873 0.012090797 0.17773172
-0.026366102 0.016866703 0.17804226
-0.023596656 0.017968744 0.1760556
0.0032597377 0.017567175 0.17736009
0.0055831023 0.015863851 0.17890002
-0.025083542 0.020226987 0.17900001
-0.022070918 0.022186667 0.17716675
-0.019202016 0.023744078 0.17551726
-0.0007492833 0.024097484 0.17499998
0.0014702438 0.02251491 0.17710753
-0.02092169 0.026442887 0.17861286
-0.017932858 0.027707892 0.17650853
-0.014980901 0.029500609 0.17500001
-0.0016225829 0.027892668 0.17659578
0.00084889139 0.027202979 0.1786885
-0.030084152 -0.0050068926 0.18200001
-0.027289988 -0.005603387 0.18338776
-0.022535944 -0.0056093466 0.18344001
-0.017599439 -0.0056165247 0.18315391
-0.012559389 -0.0057729562 0.18319355
-0.00760489 -0.0058029233 0.18295391
-0.0026930394 -0.0059541226 0.18281485
0.0024610469 -0.0061436491 0.18277422
0.0075383014 -0.0064345961 0.18244825
0.011559964 -0.0057785874 0.18053576
-0.031462576 -0.003687022 0.18061118
-0.027523007 -0.0038484968 0.18098493
-0.022581734 -0.0039775665 0.18098229
-0.017438941 -0.0040204516 0.18096238
-0.012438421 -0.0040257047 0.18071161
-0.007603243 -0.0041715321 0.18046342
-0.0026386601 -0.0044240174 0.18052174
0.0024661357 -0.0045745187 0.18034139
0.0073645483 -0.0047210478 0.18030006
0.013846016 -0.0028551326 0.18016669
0.01528723 -0.0018719945 0.18066667
-0.036728993 0.0038843395 0.18050002
0.013223054 0.0026135766 0.18155059
0.015255338 0.0017772636 0.18275002
-0.036138624 0.0074315439 0.18215877
-0.033812035 0.0086521069 0.18049999
0.0096349437 0.0092578428 0.18030003
0.011784558 0.0074482546 0.18221502
-0.035238236 0.010952068 0.18400002
-0.032442592 0.01251696 0.18163103
-0.029753558 0.014488885 0.18000001
0.0086550154 0.012830565 0.18132003
0.010742588 0.012005693 0.18347372
-0.03128216 0.016690655 0.18330614
-0.028514193 0.018064979 0.1810597
0.0046295174 0.019270429 0.18000004
0.0072059636 0.017356716 0.18196188
0.010102544 0.015003799 0.18400002
-0.03002887 0.02002023 0.18400002
-0.027002027 0.022195946 0.18230926
-0.024263471 0.023516625 0.18044446
0.0038242848 0.02272151 0.18101615
0.0059046564 0.021966331 0.1831207
-0.00080041791 -0.010431483 0.18900001
0.0012804364 -0.010551071 0.18856253
-0.026078524 -0.007363419 0.185931
-0.022486873 -0.0079243844 0.18687916
-0.017488686 -0.0080507239 0.18703003
-0.012483086 -0.0082793776 0.18719161
-0.0074885837 -0.0084562851 0.18731315
-0.0024827812 -0.0084560877 0.18699992
0.0023517038 -0.008601645 0.18642557
0.00587057 -0.0083830841 0.18540001
0.014728224 0.0040095905 0.18637501
0.015368238 0.0038277374 0.18783335
-0.03698165 0.0096536744 0.185
0.014166189 0.007686384 0.18612763
0.015574064 0.0072869933 0.18786958
-0.036419891 0.01259834 0.18604475
-0.034537401 0.013882617 0.18499999
0.012933236 0.012815856 0.18693815
0.015133448 0.014222417 0.18900001
-0.035921074 0.016692866 0.18770272
-0.033225272 0.017948257 0.18597405
0.0093092863 0.018444564 0.18571872
0.011626777 0.017045209 0.18764636
-0.031947892 0.022325154 0.18775532
-0.029018527 0.023638831 0.18546428
0.010622837 0.020858467 0.18866667
-0.021165024 -0.010995026 0.19149998
-0.017680887 -0.011619401 0.19230399
-0.012490772 -0.011405704 0.192
-0.0073608253 -0.011687286 0.192
-0.0029506744 -0.011508256 0.19080296
7.1963441e-05 -0.011203907 0.19000001
-0.021444986 -0.0096100587 0.19000003
-0.019851137 -0.0096100587 0.19000001
0.014815057 0.0099145845 0.19000001
0.01540042 0.0096830325 0.19066668
0.014815056 0.011707665 0.19000003
0.01560443 0.012013969 0.19145454
-0.036273856 0.019173408 0.19018753
0.013821139 0.017997423 0.19099997
0.015404599 0.016848098 0.19173335
-0.015134429 -0.015257122 0.19600001
-0.011997673 -0.015895301 0.19832259
-0.016389962 -0.013945568 0.19524249
-0.012532738 -0.014056133 0.19601725
-0.008577886 -0.01401746 0.19504999
