# .PCD v0.7 - Point Cloud Data file format
VERSION 0.7
FIELDS x y z
SIZE 4 4 4
TYPE F F F
COUNT 1 1 1
WIDTH 216
HEIGHT 1
VIEWPOINT 0 0 0 1 0 0 0
POINTS 216
DATA ascii
-0.003797625 0.027313385 0.14820001
-0.003090603 0.02716908 0.15042597
-0.01038787 0.0098530408 0.15900001
-0.0075966287 0.0096089607 0.15888885
-0.0049415245 0.0099641904 0.15900001
-0.010485127 0.010714454 0.15900002
-0.0073430259 0.012028999 0.1584941
-0.0047986181 0.011345627 0.15900002
-0.0035497071 0.018648693 0.15755555
-0.0034136421 0.021378519 0.15885717
-0.0018578311 0.028002704 0.15813044
-0.016587712 0.0081468225 0.16365924
-0.012457204 0.0080099814 0.16204724
-0.0074282 0.0075679626 0.16196585
-0.0030036464 0.0079622632 0.16258895
-0.01581857 0.011046327 0.16376004
-0.012420412 0.01239309 0.16196589
-0.0081437575 0.014039706 0.16023079
-0.0033651388 0.012387062 0.16163485
-0.011261309 0.016282072 0.16350877
-0.0073873266 0.017449366 0.16213523
-0.0034003465 0.017197313 0.16289242
-0.0069205048 0.020970868 0.16374072
-0.0024940928 0.02202292 0.16223335
-0.0012644132 0.027324622 0.16136542
-0.026049763 0.0043814033 0.16899997
-0.022447739 0.0041854819 0.1682464
-0.017425682 0.0041390881 0.16794516
-0.012491751 0.0040185661 0.16780226
-0.0074975509 0.0038224957 0.16768369
-0.0024910192 0.0037109118 0.16747159
0.0013609314 0.0037917534 0.16818748
-0.025902575 0.0064003579 0.16900003
-0.022388589 0.0073875869 0.16718782
-0.018173601 0.0068833097 0.16535524
-0.012714293 0.005585691 0.16538772
-0.0075094025 0.0055135321 0.16531815
-0.0016011093 0.0064846552 0.16522726
0.0011676457 0.0072410922 0.167449
-0.021168375 0.011499251 0.16837503
-0.017748095 0.012721932 0.16650008
-0.014510505 0.014406394 0.16509092
-0.0010360609 0.012763978 0.1667324
0.00048177232 0.01106537 0.16836363
-0.016572414 0.01677154 0.16824998
-0.013082343 0.017911598 0.16609684
-0.0099724568 0.019683087 0.16500001
-0.0014911307 0.017277513 0.16674326
-0.011793855 0.02205053 0.16784617
-0.0077157165 0.023050426 0.16579089
-0.0023449089 0.022666231 0.16658336
-0.010489873 0.025673475 0.16900001
-0.0073174937 0.027026152 0.16780849
-0.0026547073 0.026717037 0.16733333
0.00022015786 0.0285348 0.16722222
-0.0061383657 0.030202199 0.16900001
-0.0125234 -4.3013155e-05 0.17400001
-0.007016615 -0.00017570677 0.17400002
-0.0022986834 -0.00028204784 0.17382756
0.002433131 -0.00040783826 0.17366661
0.0055800579 -0.00032683008 0.17400001
-0.035462797 0.0020800848 0.17400002
-0.03242702 0.0024257493 0.1730181
-0.027674356 0.0023198181 0.171795
-0.022501025 0.0017621514 0.17200799
-0.017570136 0.0017184907 0.17177309
-0.012528793 0.0015711138 0.17158039
-0.0075162402 0.001395767 0.17156252
-0.002674229 0.0013132545 0.17131817
0.0028668407 0.0020138226 0.17120771
0.0057176626 0.0019621055 0.17346661
-0.031283423 0.0065936605 0.17325802
-0.027899573 0.0078186831 0.17129603
-0.024654238 0.0097028222 0.17
0.0034888093 0.0075374031 0.17188458
0.0051746052 0.0059779594 0.17400001
-0.026779758 0.011875625 0.17306
-0.023094656 0.013022795 0.17103699
-0.019900655 0.014931763 0.17
0.0019524135 0.012556391 0.17207339
-0.025203928 0.015556779 0.17400001
-0.022073843 0.017062271 0.17282259
-0.018405853 0.018221408 0.17073493
-0.00036377768 0.01809047 0.17020001
0.00062691275 0.017248247 0.17232071
-0.020634294 0.020590844 0.17400002
-0.017132685 0.022202397 0.17228916
-0.013873358 0.023323076 0.17047366
-0.00055740302 0.021991491 0.17065218
0.0004098776 0.022364274 0.17225638
-0.015812207 0.02610272 0.17378263
-0.012551663 0.027483109 0.17197905
-0.0081774676 0.029023014 0.17020003
-0.002602739 0.026421569 0.17047225
0.00084851525 0.027809022 0.17207141
-0.01117499 0.031452239 0.17349993
0.0012703817 0.030406237 0.17216669
-0.035355471 -0.00016637667 0.17533335
-0.032128435 -0.0012412333 0.17697898
-0.027499055 -0.0013635483 0.17705567
-0.02248216 -0.0015175567 0.17703392
-0.017526332 -0.0015279683 0.17681807
-0.012543689 -0.0017886322 0.17690104
-0.0074808449 -0.0018854857 0.1766388
-0.0025306828 -0.0022787002 0.17701805
0.0024773669 -0.0024622201 0.17691955
0.0076178024 -0.0021310318 0.17695071
0.010444567 -0.0020150514 0.17894997
-0.036520485 0.0028208254 0.17535946
-0.034707393 0.0035350344 0.17500001
0.0078347744 0.0025701786 0.17642862
0.010290543 0.00045434281 0.17833334
-0.03647856 0.0073448438 0.17776828
-0.033298369 0.00792755 0.17591751
0.004522955 0.0091142049 0.17513333
0.0065213316 0.0072415075 0.1776437
-0.03546942 0.010341631 0.17900001
-0.032025605 0.012231537 0.17760178
-0.028594233 0.013423193 0.17558499
0.0042379429 0.012867272 0.17603929
0.0059313397 0.011836174 0.17799999
-0.030663384 0.015696337 0.17870001
-0.027310535 0.017239543 0.17700802
-0.023860538 0.018825253 0.17543757
0.0026640431 0.017084407 0.17660259
-0.025801642 0.021302767 0.17867854
-0.022515206 0.022510167 0.17678522
-0.019068623 0.02395317 0.17533337
0.0017301299 0.02242746 0.17668521
-0.021332158 0.026724974 0.17840351
-0.017903352 0.027686335 0.17641085
-0.014751522 0.029271232 0.17500001
0.0016342546 0.026707159 0.17673916
0.0019013045 0.030234618 0.17500001
-0.027157413 -0.0055549275 0.18334888
-0.022568632 -0.0056099319 0.18333332
-0.01759691 -0.005615145 0.18311536
-0.012593286 -0.0056105088 0.18296154
-0.0075650453 -0.0057295118 0.18288897
-0.0025376657 -0.0060276212 0.1828889
0.0023669382 -0.0061772754 0.18266147
0.0076961722 -0.0065840743 0.18281725
0.011722702 -0.0062055136 0.18221672
-0.030712023 -0.0038647412 0.18069233
-0.027500028 -0.0038449652 0.18083341
-0.022554381 -0.0040126056 0.18092459
-0.017462099 -0.0040115444 0.18070379
-0.012347642 -0.0040685306 0.18054172
-0.0075476193 -0.0041470178 0.18046939
-0.0027179273 -0.0045368355 0.18061918
0.0024663075 -0.0045757582 0.18039021
0.007506276 -0.0046925871 0.18043746
0.011589351 -0.0032872632 0.18085966
0.0095991623 0.0038241823 0.18063161
0.010764213 0.0030692769 0.18211542
-0.037602913 0.0093465922 0.18014289
0.0086880941 0.0078716911 0.18146878
0.010466822 0.0062348237 0.1836154
-0.03654376 0.012565192 0.18114465
-0.034108792 0.013789242 0.18035719
0.0077079306 0.012434135 0.18212676
-0.036138572 0.016484441 0.18327278
-0.032610122 0.017592575 0.18176667
-0.029109899 0.019246502 0.18016671
0.0039394093 0.018479755 0.18017074
0.0059986576 0.017283177 0.18231672
-0.031479646 0.021699745 0.18345004
-0.027880799 0.022728311 0.18109824
-0.024594523 0.024618212 0.18000001
0.0037211655 0.022519683 0.18242861
0.006419044 0.022246052 0.1835417
-0.03002887 0.025036657 0.18400002
-0.011026631 -0.010352211 0.18900001
-0.0090448065 -0.010352211 0.18900001
-0.0011175098 -0.010616454 0.18900001
0.0016420917 -0.010279179 0.18766665
-0.025973696 -0.0075990842 0.18634373
-0.022548636 -0.0079254499 0.18698901
-0.017501457 -0.007862906 0.18676417
-0.012379848 -0.0081912177 0.18696357
-0.0074976031 -0.008393093 0.18700014
-0.0025707707 -0.0084839342 0.18689583
0.0024131832 -0.0086468523 0.18634069
0.0060784901 -0.0083353473 0.18526663
0.012337146 0.0027296552 0.18575676
0.0097694732 0.0092656985 0.185
0.011919138 0.007533357 0.18710467
0.0091378503 0.013505029 0.1857727
0.01082307 0.010677955 0.18681251
-0.036408376 0.018894827 0.18539284
-0.034847781 0.019547069 0.185
0.0080025289 0.017569259 0.18637884
0.010715903 0.017333532 0.1866
-0.036258131 0.022488458 0.18708104
-0.033280179 0.023086518 0.18560567
0.0068437099 0.0228824 0.18620522
-0.025252333 -0.010416462 0.19016668
-0.021930417 -0.011180544 0.19185077
-0.017536014 -0.011327432 0.19208051
-0.012770459 -0.011568315 0.1925206
-0.0073213498 -0.011982568 0.19237511
-0.0034118795 -0.011204056 0.19036114
-0.022241909 -0.0096100578 0.19000004
-0.017460367 -0.0096100578 0.19000004
0.013484168 0.0095483754 0.19063638
0.01244925 0.012754893 0.19275367
0.0095458226 0.01929949 0.19140001
0.011551207 0.016312532 0.1935
-0.017091442 -0.015520881 0.19700001
-0.014488647 -0.015438249 0.19700001
-0.020425584 -0.014128321 0.19600001
-0.017448317 -0.014027555 0.19611466
-0.012557349 -0.013907731 0.19539998
-0.0094137322 -0.01382975 0.19500004
0.011115449 0.013856026 0.19500002
0.013159384 0.016334584 0.19620001
