# .PCD v0.7 - Point Cloud Data file format
VERSION 0.7
FIELDS x y z
SIZE 4 4 4
TYPE F F F
COUNT 1 1 1
WIDTH 67
HEIGHT 1
VIEWPOINT 0 0 0 1 0 0 0
POINTS 67
DATA ascii
0.072321773 -0.085969947 0.31277785
0.076245651 -0.085867114 0.31136367
0.073371477 -0.08304777 0.31307507
0.077382214 -0.082390234 0.31177777
0.080571517 -0.081474997 0.31041667
0.077822402 -0.07831236 0.31372508
0.080348946 -0.077787511 0.31338465
0.068658844 -0.08594761 0.31900004
0.070466422 -0.086431772 0.31800002
0.068654709 -0.082975857 0.31900015
0.071558222 -0.081819996 0.31685182
0.069524229 -0.079591483 0.31900001
0.072771169 -0.077819549 0.31713438
0.076764546 -0.076345935 0.31569567
0.073692366 -0.073899329 0.31843752
0.077319346 -0.072621346 0.31821892
0.080669448 -0.071614042 0.31841671
0.078963906 -0.069634572 0.31900001
0.080774248 -0.069634572 0.31900001
0.058530901 -0.092396706 0.324
0.063314296 -0.086779058 0.32225811
0.066758707 -0.086733244 0.32000002
0.064147905 -0.084053159 0.32181823
0.066374972 -0.082280174 0.32072973
0.068060398 -0.077742323 0.32169238
0.070751965 -0.075696364 0.32033336
0.069075041 -0.073809795 0.32321426
0.072279848 -0.07217887 0.32126006
0.075709097 -0.070501447 0.32000002
0.07423123 -0.068548135 0.32339999
0.077314474 -0.06728676 0.32123944
0.080801286 -0.067369103 0.32145455
0.078258418 -0.063496538 0.32374999
0.054024093 -0.092240855 0.32577783
0.056635227 -0.091988765 0.32508102
0.054599937 -0.08622466 0.32800001
0.057754014 -0.087625459 0.32576793
0.060776852 -0.086388521 0.32515389
0.054599937 -0.084895067 0.32800001
0.057623103 -0.084155835 0.32788894
0.061770242 -0.08181911 0.3286297
0.065402314 -0.081048489 0.32750002
0.063034073 -0.077939555 0.32809761
0.065728731 -0.077404 0.32577276
0.064902082 -0.074218035 0.32900003
0.067723162 -0.072747365 0.32756531
0.070393674 -0.071034968 0.32725
0.069436461 -0.069683649 0.32900003
0.072889 -0.06820526 0.32657143
0.075410716 -0.065876678 0.32600001
0.054352369 -0.081059746 0.333
0.057766281 -0.081580184 0.33068419
0.060283646 -0.084342569 0.33000001
0.058262348 -0.078069292 0.33243242
0.061107431 -0.076652728 0.3310588
0.05993123 -0.073721275 0.33400002
0.063051485 -0.072632194 0.33233333
0.066051714 -0.071353383 0.33024999
0.064200811 -0.068464361 0.33346158
0.067610025 -0.067578912 0.33178693
0.071641721 -0.06648054 0.33103848
0.053855877 -0.076525606 0.33855557
0.056442063 -0.076410033 0.33568001
0.057644121 -0.072805472 0.33692154
0.060987867 -0.071379147 0.3352308
0.053841028 -0.07532125 0.34
0.054481901 -0.072336353 0.34187502
