# .PCD v0.7 - Point Cloud Data file format
VERSION 0.7
FIELDS x y z
SIZE 4 4 4
TYPE F F F
COUNT 1 1 1
WIDTH 95
HEIGHT 1
VIEWPOINT 0 0 0 1 0 0 0
POINTS 95
DATA ascii
-0.041417982 0.032830331 0.11732699
-0.039101318 0.033276264 0.11845081
-0.041347504 0.037511352 0.11773132
-0.039420538 0.035944197 0.11875608
-0.042454552 0.041159034 0.11883332
-0.046116337 0.029243911 0.12349257
-0.042596094 0.0294438 0.12315437
-0.037618548 0.029575564 0.12331726
-0.034438904 0.029683908 0.12366667
-0.045385007 0.03059132 0.12111767
-0.042426039 0.030703282 0.12090072
-0.037068352 0.032120086 0.12134388
-0.034125857 0.031773612 0.12359115
-0.040499046 0.039220955 0.12011997
-0.037849128 0.037341818 0.12208818
-0.034800805 0.035260551 0.12400001
-0.041443858 0.042919166 0.12125196
-0.038976017 0.041537244 0.12329767
-0.0423261 0.046252385 0.12248521
-0.050479714 0.026537744 0.12900001
-0.047176413 0.027522784 0.12723978
-0.042372361 0.027762815 0.12707521
-0.037431799 0.028052013 0.12690228
-0.032493535 0.028374217 0.1268746
-0.028692227 0.028404536 0.12861432
-0.031981651 0.032746986 0.12648073
-0.02931151 0.031434316 0.12859423
-0.035855044 0.038527332 0.12564287
-0.033399798 0.037194122 0.12760963
-0.040199161 0.044868246 0.125
-0.037026968 0.042756803 0.12673751
-0.034426302 0.041089293 0.12867391
-0.040631779 0.047706448 0.1256883
-0.038498782 0.047001995 0.12754264
-0.039142858 0.050069034 0.12900001
-0.051750485 0.024488796 0.13345446
-0.047478728 0.024576036 0.13323295
-0.042403746 0.024510112 0.13341226
-0.037369315 0.024541462 0.13355906
-0.033305511 0.024609733 0.13312851
-0.051460177 0.025720874 0.13129631
-0.047623485 0.025795287 0.13084602
-0.042691335 0.025847146 0.13102023
-0.037475102 0.025926333 0.13093883
-0.032456659 0.026014809 0.13073829
-0.028768754 0.026823396 0.13002388
-0.030213756 0.034577768 0.13000003
-0.028101768 0.032923065 0.13103816
-0.031149162 0.038035959 0.13078938
-0.028594097 0.036926541 0.13288526
-0.035438307 0.044253971 0.13000001
-0.032561831 0.042374596 0.13189828
-0.029574931 0.04076127 0.13385718
-0.0363032 0.047984127 0.13108462
-0.03388264 0.046794672 0.13301475
-0.036662221 0.050759144 0.13228409
-0.03465084 0.050209425 0.134
-0.055799372 0.021832677 0.13816668
-0.05251408 0.022580387 0.13707751
-0.047499951 0.022745449 0.13688008
-0.042560719 0.022756843 0.13693473
-0.037742943 0.022773644 0.1367761
-0.034259196 0.023629652 0.13534614
-0.027432831 0.038708534 0.13556173
-0.030641476 0.044086106 0.13536176
-0.028098611 0.042438325 0.13702174
-0.031720035 0.047881849 0.13645044
-0.02900099 0.04635239 0.13849999
-0.035282891 0.051718488 0.13508333
-0.0328766 0.051595554 0.13737498
-0.060085271 0.019116536 0.14400001
-0.057292741 0.019258069 0.14318481
-0.052602984 0.019228756 0.14333709
-0.047613405 0.019358614 0.14328387
-0.042550921 0.01922496 0.14300004
-0.039466858 0.019761426 0.14161539
-0.056956638 0.020559378 0.14130983
-0.052409474 0.020602962 0.14091089
-0.04750029 0.020666407 0.140975
-0.0424775 0.020797007 0.14088701
-0.03897471 0.02073543 0.14031428
-0.026741749 0.044516828 0.14
-0.030040856 0.049571428 0.14
-0.027620997 0.047931965 0.14129701
-0.030830702 0.052883558 0.14055452
-0.060502529 0.018543957 0.14500001
-0.056406289 0.017687002 0.14599995
-0.052376062 0.017301863 0.14703833
-0.047611013 0.017583681 0.14644925
-0.043967802 0.01799551 0.14607139
-0.051096499 0.014495814 0.15187499
-0.049358025 0.014372274 0.15220001
-0.05504908 0.015656751 0.15000001
-0.052025151 0.015411053 0.15044647
-0.048486691 0.015741382 0.15041183
