# .PCD v0.7 - Point Cloud Data file format
VERSION 0.7
FIELDS x y z
SIZE 4 4 4
TYPE F F F
COUNT 1 1 1
WIDTH 178
HEIGHT 1
VIEWPOINT 0 0 0 1 0 0 0
POINTS 178
DATA ascii
0.054770444 0.019234685 0.13876474
0.05729679 0.018673476 0.13870127
0.054646738 0.020969529 0.13900004
0.056736037 0.021204485 0.13875005
0.058388736 0.014708282 0.14358337
0.062538959 0.014388132 0.14343181
0.06631355 0.014269468 0.14375478
0.052820813 0.017444391 0.14226648
0.057319034 0.016220659 0.14127222
0.061958093 0.016891439 0.14103213
0.066142879 0.015594115 0.1432188
0.05359764 0.022264525 0.14205708
0.0574206 0.023405898 0.1405873
0.060799319 0.021807436 0.14168572
0.054302126 0.0266266 0.14320007
0.056836549 0.027417954 0.14315541
0.060219839 0.025303986 0.14400001
0.05619216 0.030507453 0.14400001
0.074088618 0.0099956635 0.14900002
0.048707794 0.013743111 0.14823656
0.052531667 0.013629999 0.14695786
0.057398047 0.013173089 0.14704156
0.062450059 0.012643831 0.14685225
0.067773022 0.012283686 0.14650731
0.072166532 0.011314866 0.14786844
0.075397268 0.010519124 0.14900002
0.048967507 0.017210592 0.14700001
0.050725557 0.017421409 0.14515093
0.049439173 0.021196028 0.14840908
0.051388554 0.022838341 0.14665438
0.063420139 0.024746384 0.14750001
0.052835487 0.027472407 0.14690618
0.058958799 0.028740238 0.14514814
0.062069401 0.027403187 0.14778019
0.053964838 0.032064576 0.14761347
0.057040207 0.032499805 0.14673106
0.06085895 0.03059545 0.14841177
0.054338135 0.035182048 0.149
0.056135014 0.035680339 0.149
0.044309575 0.0096354876 0.15400003
0.047680274 0.0095192101 0.15369225
0.052520685 0.0093259485 0.15339431
0.057429001 0.0092951264 0.1533553
0.062548414 0.0091080563 0.15312767
0.067614622 0.0089133047 0.15283041
0.072508439 0.0086877029 0.15221111
0.07594648 0.008248725 0.15211475
0.044028658 0.012007396 0.15345457
0.046954174 0.012038088 0.15123026
0.052412283 0.011096087 0.15094529
0.057490222 0.010875881 0.15094455
0.062490396 0.010731518 0.15072727
0.067065798 0.010451872 0.15060347
0.071667247 0.010139556 0.15000002
0.075656019 0.010062749 0.15000001
0.044807002 0.01576907 0.15400003
0.046717364 0.017440477 0.15194833
0.048138089 0.022370741 0.15202065
0.050112091 0.024442982 0.14999999
0.049294863 0.026879126 0.15287842
0.050891094 0.028102586 0.15095505
0.06415695 0.029019767 0.15078948
0.066101424 0.029307213 0.15243332
0.049606852 0.030057646 0.15400001
0.052004773 0.03239911 0.15190956
0.059636086 0.034238566 0.15000001
0.062470756 0.032431211 0.15132536
0.066291869 0.030709308 0.15331583
0.053472452 0.037233923 0.15211557
0.057411931 0.037754636 0.15094177
0.061036732 0.037390236 0.15288889
0.054372478 0.041138258 0.15351349
0.056789346 0.041201182 0.15277782
0.060094394 0.040295482 0.15400001
0.062858611 0.004994682 0.15900004
0.067574121 0.0049517141 0.15899999
0.072315097 0.0048027826 0.1585833
0.039495688 0.0085541997 0.15874998
0.042520601 0.0080849985 0.15723322
0.047500916 0.0074753966 0.15692994
0.052452363 0.0071866196 0.15701808
0.0575254 0.0069757719 0.15679799
0.06246113 0.0068180319 0.15676418
0.067430876 0.0066990424 0.15674153
0.072363906 0.006394587 0.15627778
0.076868176 0.0066739046 0.15547366
0.039873801 0.010666514 0.15900001
0.04193734 0.012620009 0.15692462
0.043677803 0.017306384 0.15729636
0.045446515 0.01878139 0.15514283
0.044544816 0.021222118 0.15825805
0.046127401 0.022909243 0.15663867
0.047498032 0.027560847 0.15678385
0.069243021 0.029240439 0.15566663
0.048751332 0.032100566 0.15748309
0.050642066 0.033469226 0.15576477
0.068527013 0.030378491 0.155
0.049670607 0.035817366 0.15900002
0.051264651 0.037445389 0.1567356
0.062028479 0.039372325 0.155
0.037763234 0.0041796556 0.16349992
0.042542335 0.0040368754 0.16297817
0.047507517 0.0039154124 0.16267279
0.052593891 0.0037565355 0.16242984
0.057603396 0.003649286 0.16203891
0.062559299 0.0034385982 0.16192414
0.06758669 0.0031645049 0.16189007
0.072427757 0.0025035942 0.16221763
0.075418279 0.0025531752 0.16233331
0.034479748 0.0062154182 0.164
0.037473612 0.0071858107 0.16195449
0.042389765 0.0056462651 0.16049182
0.047433514 0.0054363916 0.16029547
0.052629203 0.0052855285 0.16000001
0.057393029 0.0050585237 0.16000001
0.060446762 0.0050260946 0.16000001
0.038699504 0.012323566 0.16220486
0.040570479 0.01400128 0.16027276
0.039572909 0.016561985 0.1635385
0.041329496 0.01781456 0.16132495
0.042849161 0.022354482 0.1619731
0.045053791 0.024742926 0.16000001
0.044160753 0.026947465 0.16310444
0.04565997 0.027949572 0.16098487
0.044850547 0.031583976 0.16400002
0.046498265 0.032619566 0.16177601
0.044190153 -0.00017168795 0.16900001
0.047930595 -0.00025389547 0.16899997
0.05271497 -0.00035690854 0.16885296
0.057683092 -0.0005147981 0.16852948
0.062568024 -0.00058423175 0.16850881
0.067635618 -0.00087587396 0.16853331
0.070975058 -0.0012994061 0.16899998
0.034749441 0.0043508159 0.16500001
0.037807181 0.0028287559 0.16554345
0.042651884 0.0017768119 0.16653511
0.047465861 0.0014650559 0.16673967
0.052424546 0.001315865 0.16643523
0.057415795 0.0012430437 0.1661212
0.062370218 0.0010608243 0.16592772
0.067257397 0.00076177594 0.16559996
0.070387378 0.00071143318 0.16500002
0.034357015 0.0077057723 0.16574071
0.035733338 0.0090498216 0.16524999
0.034545299 0.011255 0.1685238
0.036357168 0.01277097 0.16661818
0.037994742 0.01736006 0.16693032
0.040040776 0.019630279 0.16500001
0.039160039 0.022091134 0.16800001
0.040897839 0.023219649 0.16574603
0.039641336 0.02531264 0.16900001
0.042183045 0.02758803 0.16706158
0.043773878 0.032262575 0.16731533
0.045191269 0.033247672 0.16508332
0.044561893 -0.00044835033 0.17
0.047956869 -0.0011285612 0.17057411
0.052777968 -0.0024120989 0.17212871
0.05742209 -0.0026027232 0.17217965
0.062606476 -0.0027436146 0.17196701
0.067013629 -0.0032371939 0.17208689
0.03449703 0.013679819 0.17054547
0.035189912 0.014528442 0.17
0.034405898 0.017608143 0.17271733
0.035923012 0.017924415 0.17095523
0.034546714 0.020439692 0.173875
0.036995649 0.022571329 0.17203225
0.038620509 0.027225044 0.17232002
0.040488433 0.028530039 0.17067741
0.058446199 -0.0054913806 0.17635718
0.06247003 -0.0056951004 0.17676371
0.065593421 -0.0050015971 0.17500001
0.05767411 -0.0045759664 0.17499998
0.062105611 -0.0046114349 0.175
0.065451548 -0.0047178431 0.17500001
0.034544837 0.023062592 0.17511539
0.035519332 0.02395073 0.17506665
0.03468629 0.026002403 0.1777143
0.036284257 0.027691199 0.17646742
