# .PCD v0.7 - Point Cloud Data file format
VERSION 0.7
FIELDS x y z
SIZE 4 4 4
TYPE F F F
COUNT 1 1 1
WIDTH 160
HEIGHT 1
VIEWPOINT 0 0 0 1 0 0 0
POINTS 160
DATA ascii
-0.0024680509 0.014593308 0.14900002
0.002750953 0.014452343 0.14900005
0.0078222696 0.0143444 0.14900008
0.012665138 0.014244883 0.14897151
0.017551053 0.014178468 0.14851919
0.022436826 0.014090861 0.14838257
0.02549723 0.014244822 0.14889474
-0.010796161 0.016655663 0.14900008
-0.0075708544 0.016699944 0.14900014
-0.0025399697 0.016699966 0.14900014
0.0025490632 0.016628455 0.14900014
0.0076496983 0.016540721 0.14900014
0.01252014 0.016495658 0.14897056
0.017474091 0.01666409 0.14856374
0.022454996 0.016603151 0.14849414
0.025663432 0.016318649 0.14892311
0.023851741 0.0098316818 0.15400003
-0.011126155 0.013520928 0.15198746
-0.0074737119 0.01326463 0.15197381
-0.0024535162 0.012911145 0.15206139
0.0025746387 0.012643909 0.15207089
0.0074555646 0.012478 0.15188225
0.012454155 0.012192958 0.15192044
0.017481651 0.011871505 0.15192348
0.022494121 0.011636221 0.15189204
0.025851473 0.012328724 0.15138601
-0.010951875 0.018406982 0.15000005
-0.0075000562 0.019305017 0.14999999
-0.0024282546 0.019305011 0.14999998
0.0025934712 0.019228779 0.14999998
0.0073820455 0.019189447 0.15017433
0.012542447 0.019120377 0.15017766
0.01761735 0.019157747 0.15005055
0.022557735 0.019174952 0.15019752
0.025971912 0.018310959 0.15013959
-0.010726497 0.02250577 0.1524754
-0.00748565 0.02239879 0.15208952
-0.0024622541 0.022289664 0.15185912
0.0025287489 0.022372738 0.15200882
0.0074939094 0.022334497 0.15204023
0.012511699 0.022392947 0.15214527
0.0175268 0.022364084 0.1520357
0.022492202 0.02236942 0.15204911
0.025871627 0.02235001 0.15213931
-0.010446793 0.025219647 0.15400003
-0.0072674309 0.025284246 0.15399994
-0.0022415423 0.025363218 0.15399991
0.0025211328 0.02546311 0.15399997
0.0076041277 0.025471 0.15399995
0.012380253 0.025463114 0.15399997
0.017441945 0.02550056 0.15399998
0.022451617 0.025500553 0.15399998
0.025760185 0.025328891 0.15400003
-0.011404977 0.0093313381 0.15824324
-0.0074291476 0.0092878714 0.15808828
-0.0024483046 0.0090690749 0.15797889
0.0024456368 0.0090523148 0.15779181
0.0074526076 0.0090243658 0.15755905
0.012584966 0.008909883 0.15729636
0.017468857 0.0086649442 0.15711197
0.022387013 0.0084526781 0.15701206
0.025576251 0.0085226931 0.15675676
-0.011486768 0.011056336 0.15584752
-0.0076228231 0.010793895 0.15590794
-0.0025788415 0.01065826 0.15576921
0.0023685005 0.010725228 0.15529636
0.0074128951 0.01063515 0.15514292
0.012473212 0.010515462 0.15500003
0.017382421 0.010398174 0.155
0.02598132 0.010505886 0.155
-0.01071208 0.027458884 0.15575011
-0.0075802063 0.027858883 0.1559653
-0.0025721469 0.027931094 0.15593608
0.0025504667 0.028009562 0.15596886
0.0074836831 0.028005118 0.15580627
0.01256651 0.027996516 0.15579267
0.017500188 0.028038425 0.15579996
0.0224408 0.028030246 0.15575637
0.025901295 0.028031081 0.15598309
-0.010502148 0.031507894 0.15812501
-0.0076168613 0.031773355 0.15816891
-0.0026538514 0.031668663 0.15832691
0.0024645072 0.031530723 0.15849611
0.0074769557 0.031564787 0.15851139
0.012525643 0.031450499 0.15832503
0.017439958 0.031436086 0.15813826
0.022351842 0.031491559 0.15820643
0.026104558 0.031483427 0.15841819
0.0040131649 0.0048858295 0.16400002
0.0079242289 0.0047891326 0.16400003
0.012662133 0.0046847342 0.16394447
0.017460685 0.0046099802 0.16366673
0.022568971 0.0044995961 0.16355772
0.025511334 0.0046005906 0.16333334
-0.011441793 0.0071658851 0.16195697
-0.0074934312 0.0070808874 0.16181412
-0.0023783373 0.0067045647 0.16192907
0.0025397043 0.0064874818 0.1620376
0.007478823 0.006481363 0.16166171
0.012426237 0.0063634473 0.16141269
0.01749835 0.0061386148 0.16128843
0.022491036 0.0059729326 0.16108781
0.025497299 0.006033855 0.16110526
-0.010659508 0.033970069 0.1602
-0.0071993978 0.034413472 0.15999992
-0.002213191 0.034161277 0.16001606
0.002593836 0.034012776 0.16021737
0.0074844053 0.034038622 0.1602205
0.012514527 0.033959348 0.16018987
0.017500458 0.033991262 0.16013694
0.022653684 0.033971302 0.15999992
0.026091669 0.033893798 0.16
-0.010449411 0.037216395 0.16248652
-0.0074297837 0.037629966 0.16251366
-0.0025381946 0.037309732 0.16226165
0.0025806492 0.037011892 0.16244517
0.0075188926 0.037436824 0.1624525
0.012461752 0.037414458 0.16234024
-0.011574615 0.0038633503 0.16733336
-0.0075005395 0.003666695 0.16697675
-0.0024185302 0.0035268436 0.16695082
0.0024520522 0.0034110199 0.16684568
0.0074370787 0.0030782467 0.1670889
0.012515635 0.0028253323 0.16706008
0.017570013 0.0026201287 0.1669625
0.022463869 0.002401992 0.16692543
0.025479192 0.0027105988 0.16664
-0.011728072 0.0052901763 0.16500001
-0.0075990497 0.0051831608 0.16500001
-0.0040586125 0.0051831603 0.16500002
-0.011591886 -0.00033521294 0.17375003
-0.0074897017 -0.00045856123 0.17366658
-0.0024256031 -0.00045173898 0.17355809
0.0026476586 -0.0006235257 0.17324997
0.0075319582 -0.00078328961 0.17294201
0.012597163 -0.00082568132 0.17290542
0.01757979 -0.00097209233 0.17274997
0.022557756 -0.0011963864 0.1727099
0.025458263 -0.0012203595 0.17329414
-0.011562056 0.0013344468 0.1713175
-0.0074524279 0.001167502 0.17114453
-0.0025790159 0.0010531836 0.17109452
0.0025381122 0.0010019356 0.17087497
0.0074638384 0.00081232807 0.17096487
0.01225839 0.00073425623 0.170449
0.017385483 0.00064860209 0.17034887
0.022569679 0.00055338792 0.17010005
0.025313381 0.0005885131 0.17125
0.012324496 -0.0051159188 0.17900001
0.019493412 -0.0051159188 0.17900001
0.020857537 -0.0052320147 0.17900001
-0.01149612 -0.0021136359 0.17654672
-0.0073950444 -0.0025535836 0.17696576
-0.0024663315 -0.0025678712 0.17665316
0.0024738812 -0.0029336726 0.17699136
0.0074029025 -0.0031165206 0.17700917
0.012463287 -0.0033135873 0.17681815
0.017523009 -0.0034812014 0.17686358
0.022450749 -0.0037079102 0.17689139
0.025245579 -0.0039753537 0.17812501
