# .PCD v0.7 - Point Cloud Data file format
VERSION 0.7
FIELDS x y z
SIZE 4 4 4
TYPE F F F
COUNT 1 1 1
WIDTH 207
HEIGHT 1
VIEWPOINT 0 0 0 1 0 0 0
POINTS 207
DATA ascii
0.0047659734 0.013338552 0.125
0.0057124174 0.012281569 0.12629166
0.0068650357 0.0094554564 0.13000001
0.0070597744 0.010619984 0.13000001
0.011012015 0.012133417 0.14210001
0.0020970914 0.023753243 0.1434243
0.0026700206 0.019853294 0.14666669
0.0031059911 0.022410177 0.14698736
0.0029588302 0.026539054 0.14712761
0.0042647901 0.022966452 0.15068968
0.0051918179 0.024989793 0.15300001
0.0043504941 0.026321467 0.1506667
0.0052748988 0.026223548 0.15333335
-0.0060944986 0.0094616059 0.15896152
-0.0025415472 0.0092317313 0.15835075
0.0016198856 0.0092254654 0.15848272
-0.0061785332 0.011488488 0.15881358
-0.0025284381 0.012442937 0.15731515
0.001530249 0.012375422 0.1573173
-0.0014356745 0.016454997 0.15858907
0.0013558862 0.016893523 0.15848489
0.0028870157 0.020902101 0.15850002
0.0055070701 0.024158943 0.15776925
0.0060298494 0.026165154 0.15685713
-0.015595554 0.0078527825 0.16400002
-0.012426347 0.0079735955 0.16268823
-0.0075743124 0.0075856987 0.16167068
-0.0025355353 0.0069236155 0.16197121
0.0026891942 0.0071292678 0.16212122
0.0057413094 0.0074448991 0.16364151
-0.011774376 0.011853058 0.16310823
-0.0080837226 0.012815673 0.16095652
-0.0048607546 0.01461267 0.16000001
0.004068831 0.01228403 0.16175005
0.0055111712 0.011302567 0.16340001
-0.010370597 0.015207276 0.164
-0.0069004213 0.016977483 0.16269062
-0.0031082868 0.018024988 0.16069417
0.0016395911 0.019178335 0.1619048
0.0067482232 0.019675592 0.16350001
-0.0055534276 0.020702019 0.16393337
-0.0022081651 0.022093939 0.16266885
0.0010227094 0.02242646 0.16244157
0.0065228282 0.023149043 0.1617049
-0.00077861577 0.02571642 0.16400002
0.00050691766 0.026181379 0.16388239
0.0072846799 0.026069859 0.16200003
0.0029615189 0.033036865 0.16366668
0.0024696651 0.0350409 0.164
-0.025558578 0.0043155234 0.16899998
-0.022368677 0.004022527 0.16840003
-0.017489808 0.0040063648 0.16796435
-0.012385267 0.0039442056 0.16759339
-0.0074921018 0.0038191299 0.16755104
-0.0024882713 0.0037339898 0.16738465
0.0024886453 0.0036057218 0.16722956
0.0074688136 0.0035005962 0.16761991
0.010342232 0.0033252276 0.16900001
-0.025474027 0.0060227704 0.16899998
-0.022248644 0.007305033 0.16780119
-0.017881017 0.0073577422 0.16560146
-0.012533552 0.0054985788 0.16534878
-0.0077542681 0.0054202117 0.16511425
-0.0026826989 0.0051727742 0.16500001
0.0023858577 0.0051497049 0.16500001
0.0073114708 0.006744789 0.16570491
-0.020821026 0.010932015 0.16878572
-0.017326299 0.012277406 0.16727397
-0.01361047 0.013506579 0.16544445
0.0049267798 0.014204418 0.16566668
0.0064170989 0.012357128 0.16676781
-0.016002618 0.016180204 0.16868299
-0.012409709 0.017435176 0.1671361
-0.0087540997 0.018552646 0.16542856
0.0030485708 0.018515352 0.16575858
0.0057483423 0.018334813 0.16681251
-0.011155119 0.021106757 0.16866674
-0.0075214356 0.022543076 0.16687424
-0.0039376263 0.024019545 0.16518179
0.0041881916 0.021449128 0.16738714
0.0078801978 0.022190964 0.16716668
-0.0061956062 0.026749557 0.16835386
-0.002762808 0.0276182 0.16646294
0.00052185461 0.028737912 0.16560709
0.0083571291 0.027117342 0.16711111
-0.0018401637 0.031667303 0.1683958
0.0019871558 0.032805376 0.16741836
0.0053746803 0.031889863 0.16700003
-0.016354926 -4.3013155e-05 0.17400001
-0.012523401 -4.3013155e-05 0.17400001
-0.0071738577 -0.00020357243 0.17399999
-0.0023749373 -0.00038810898 0.1736486
0.0024331308 -0.00040783832 0.17366661
0.0076365196 -0.00055878615 0.17347161
0.011757106 -0.0004418568 0.17368746
-0.031144256 0.0029195279 0.172169
-0.027651131 0.0024415262 0.17176463
-0.022537697 0.0016041257 0.17210713
-0.017519562 0.0015771305 0.17177071
-0.012600352 0.0015126087 0.17165424
-0.0075407033 0.0014022241 0.17149465
-0.0026955649 0.0013302051 0.17106593
0.0023988879 0.0011756913 0.17079009
0.0075174202 0.0010928635 0.17077024
0.011447961 0.0013759059 0.17165571
-0.031069966 0.0068740956 0.1730606
-0.027651144 0.0076937708 0.17139456
-0.024145264 0.0093491701 0.17015792
-0.026761627 0.011730609 0.1731828
-0.022804564 0.01280814 0.17146385
-0.019292476 0.014218725 0.17
-0.021669045 0.016748639 0.17310633
-0.017928002 0.017866649 0.17122582
-0.014513263 0.019526893 0.16999999
0.0050556492 0.019566506 0.17
-0.020125635 0.020148532 0.17400001
-0.016833723 0.021870835 0.17311999
-0.01296549 0.022883197 0.17107873
-0.0096408399 0.024518156 0.16999999
0.009351017 0.023102991 0.17131251
0.011065547 0.023358652 0.17226666
-0.015260204 0.025135599 0.17400001
-0.011892568 0.027122915 0.17294961
-0.0082727904 0.02785749 0.17082176
0.0094671892 0.026894813 0.17063636
0.010494587 0.025928555 0.17309093
-0.010516408 0.030609211 0.17400001
-0.030028084 -4.3260352e-05 0.17500001
-0.026835123 -0.0011895129 0.17666259
-0.02241102 -0.0014750416 0.17706081
-0.017600728 -0.0016251702 0.17700015
-0.012513403 -0.0017239176 0.17677993
-0.0074504432 -0.0019790044 0.17672227
-0.0025331834 -0.0024077974 0.17711534
0.0024859793 -0.002475708 0.17684071
0.0075543257 -0.0026854475 0.17680581
0.012621913 -0.0025917194 0.17675
0.015635818 -0.0032802813 0.17887498
-0.031785835 0.0092261489 0.17531578
-0.03134568 0.012572476 0.17684272
-0.028459506 0.013418656 0.17561294
-0.03079878 0.015991118 0.17868419
-0.027291507 0.017257132 0.1772043
-0.023442417 0.018419703 0.17552316
0.010766502 0.018913111 0.17900001
-0.026011966 0.021000477 0.17859256
-0.022394363 0.022324102 0.17705634
-0.018601043 0.023601022 0.17558625
0.0099754026 0.02161001 0.17500001
0.012055442 0.022214344 0.17671743
-0.021198805 0.026411323 0.17873327
-0.017484013 0.027459851 0.1769267
-0.013958628 0.028424511 0.1752501
0.011016835 0.026639421 0.17550001
-0.025012443 -0.0058336719 0.18400002
-0.022620803 -0.0054944255 0.18338101
-0.01746463 -0.005571296 0.18325004
-0.012609331 -0.0056177471 0.18319237
-0.0076984502 -0.0058565661 0.18301694
-0.0024770019 -0.0060929861 0.18293105
0.0023673428 -0.0061784489 0.18270771
0.0076537426 -0.0066008163 0.18284212
0.012159172 -0.0063661276 0.18186845
0.0161273 -0.0055917311 0.18033335
-0.02565938 -0.0035459981 0.18041669
-0.022665666 -0.0039704298 0.1811552
-0.017416989 -0.004014736 0.18071701
-0.012439542 -0.0040261918 0.18073082
-0.0074627404 -0.0042419503 0.18051064
-0.0026832351 -0.0045499969 0.18046336
0.0024411401 -0.0045833248 0.18032496
0.0073061665 -0.0046725646 0.1802424
0.012525356 -0.0047631264 0.18000002
0.016476423 -0.0040333117 0.17999999
-0.03163819 0.017845573 0.18073685
-0.029214287 0.019423224 0.18000004
0.011487105 0.019488879 0.18144447
-0.031221224 0.022141008 0.18319668
-0.027857738 0.022825163 0.18121427
-0.024468692 0.024492381 0.18000002
0.01298729 0.021412402 0.18205266
0.015525294 0.022027645 0.18322225
-0.030183224 0.025345361 0.18400002
-0.026999673 0.026866287 0.18293546
-0.023095509 0.027943594 0.18099001
-0.0014914513 -0.010651248 0.18883337
0.0010897308 -0.010461714 0.18799999
-0.021371193 -0.0074049672 0.18625005
-0.017492343 -0.0078670839 0.18691495
-0.012467081 -0.0080850152 0.18682708
-0.0074152979 -0.0083181281 0.18701103
-0.0025849505 -0.0085615739 0.18705496
0.002413996 -0.0086508589 0.18641771
0.0063455477 -0.0084477076 0.18524995
0.014062854 0.019582639 0.18533334
-0.032205161 0.02413848 0.18507691
0.013903627 0.020780519 0.18620834
0.016060041 0.021649554 0.1864
-0.017168164 -0.011159733 0.19181938
-0.012427356 -0.011435459 0.19209892
-0.0077033988 -0.011586786 0.19165352
-0.0037656794 -0.011260948 0.19046432
-0.020780882 -0.0094772382 0.19000003
-0.018257286 -0.0096100578 0.19000003
-0.016759316 -0.013609802 0.19500007
-0.012603523 -0.013836863 0.19500005
-0.0096045751 -0.014225068 0.19500002
