# .PCD v0.7 - Point Cloud Data file format
VERSION 0.7
FIELDS x y z
SIZE 4 4 4
TYPE F F F
COUNT 1 1 1
WIDTH 146
HEIGHT 1
VIEWPOINT 0 0 0 1 0 0 0
POINTS 146
DATA ascii
-0.02718146 0.0083495555 0.16399972
-0.022409471 0.0081920419 0.16357128
-0.01754049 0.0081579844 0.16312906
-0.012494832 0.0081011979 0.1625656
-0.0073925252 0.0079130391 0.16244031
-0.0024914346 0.0077760019 0.16215937
0.0024817365 0.007684323 0.16176587
0.0062711895 0.0077506877 0.1618738
-0.02687492 0.010456375 0.164
-0.022316132 0.010681282 0.16400003
-0.017297445 0.011091902 0.16382487
-0.012431106 0.011508031 0.16352056
-0.0073421095 0.01194533 0.16317068
-0.0024483541 0.012319835 0.16292474
0.0024443381 0.012399656 0.16241427
0.0061612558 0.01228138 0.16225269
0.0030462632 0.015375874 0.16400002
0.0063860933 0.015591894 0.16400002
-0.026970893 0.0042312951 0.16809092
-0.022491544 0.0041853767 0.16804227
-0.017389558 0.00407439 0.16796146
-0.012479158 0.0040143123 0.16763955
-0.007400176 0.003888903 0.1675653
-0.0025124319 0.0037741959 0.1674158
0.002495813 0.0036460632 0.16724364
0.0064125354 0.0037051805 0.16708623
-0.027336812 0.0058212755 0.16579658
-0.02242313 0.0056989491 0.16556889
-0.017464925 0.0056848857 0.16550002
-0.012681604 0.0056330222 0.16541508
-0.0076931468 0.0054783705 0.16527496
-0.0025327515 0.0053227227 0.16499999
0.0020954376 0.005279466 0.16499999
0.006487716 0.0052812099 0.16518182
-0.030296251 0.014433049 0.16833335
-0.027470268 0.012799094 0.16595519
-0.022468656 0.013011859 0.16559729
-0.017535856 0.013520544 0.16547759
-0.01269658 0.01407504 0.16532913
-0.0079590743 0.014417699 0.16502219
-0.0035362465 0.014804022 0.16500001
-0.030239025 0.015995799 0.16900001
-0.027247541 0.016495433 0.16824549
-0.022404131 0.016980346 0.16812269
-0.017473616 0.017405063 0.16791005
-0.012473147 0.017483979 0.16742775
-0.0074617662 0.017461913 0.16685179
-0.0025524539 0.017392471 0.16619244
0.0024101501 0.017895682 0.16591404
0.0064337957 0.018178536 0.16585533
-0.015530534 0.020160254 0.16900001
-0.012275107 0.020344028 0.16899998
-0.007253197 0.020703601 0.1689091
-0.0023993196 0.021102555 0.16854939
0.0025407448 0.021652814 0.16839157
0.0062921285 0.021874553 0.16835943
-0.020733813 -4.3013151e-05 0.17400001
-0.017449651 -4.3013159e-05 0.17400001
-0.012523399 -4.3013155e-05 0.17400001
-0.0071053184 -0.00018580303 0.17400002
-0.0022950729 -0.00028199676 0.17362069
0.0024299312 -0.00040750339 0.17352375
0.0067129578 -0.00053990755 0.17345454
-0.026937775 0.0019257468 0.17188536
-0.022457344 0.0017520889 0.17183876
-0.017558333 0.0016548492 0.17173909
-0.012511497 0.0015699144 0.17164868
-0.0076049231 0.0014789692 0.17145097
-0.0026425892 0.0013752077 0.17129034
0.0023961093 0.0012105851 0.17110713
0.0066244551 0.0013483794 0.17106661
-0.030058959 0.018785065 0.171
-0.027671648 0.018949546 0.17016673
-0.022925971 0.019617442 0.17000003
-0.018964794 0.019878458 0.16999999
-0.030047717 0.022632875 0.17300001
-0.027425939 0.022423338 0.17202246
-0.022471227 0.02267592 0.17173333
-0.017536856 0.022668786 0.17141043
-0.01258061 0.022890778 0.17099999
-0.0077095926 0.023172339 0.17067736
-0.0028062027 0.023604959 0.17035159
0.0022285257 0.024047406 0.1700176
0.0062321611 0.024296321 0.17000003
-0.027336564 0.025886081 0.17399989
-0.022195039 0.026233401 0.17383578
-0.017334225 0.026471993 0.17358416
-0.012367621 0.02693639 0.17341541
-0.007362484 0.027248388 0.17313263
-0.0025163051 0.027427152 0.17262214
0.0023836 0.027396677 0.17196666
0.0063836793 0.027480729 0.17166662
-0.0012568857 0.030289918 0.17400001
0.0027835071 0.030631552 0.17392848
0.0063501145 0.030740108 0.17356667
-0.026681319 -0.0013102851 0.17682195
-0.022577381 -0.0015844617 0.177
-0.017488549 -0.0017383458 0.17709099
-0.012500097 -0.0019273772 0.17715576
-0.0075188982 -0.0019917013 0.1769647
-0.0025317899 -0.0022793587 0.17709008
0.0024781791 -0.0024623561 0.1769374
0.0066593625 -0.0026943437 0.1772535
-0.028193062 0.00032374423 0.17500001
-0.027638229 0.028287522 0.17551957
-0.022619221 0.028579198 0.17536849
-0.017754748 0.028931754 0.17533343
-0.01299135 0.029326763 0.17500007
-0.0083748205 0.029599423 0.175
-0.026478341 -0.0055703442 0.18346432
-0.022530278 -0.0054130289 0.18313164
-0.017600525 -0.0056164432 0.18315391
-0.012604472 -0.0056159161 0.18313463
-0.0075115687 -0.0057649133 0.18293548
-0.0025770485 -0.006039571 0.18288518
0.0023668678 -0.0061766268 0.18264614
0.0069179353 -0.0062433211 0.18282455
-0.026764359 -0.0037503112 0.18088096
-0.022516396 -0.0040319287 0.18100002
-0.017541731 -0.0040509212 0.18082002
-0.012450083 -0.004218346 0.18087187
-0.0074954852 -0.0042053633 0.18033327
-0.0025817419 -0.0045014904 0.18053855
0.0024661263 -0.0045738984 0.18031707
0.0068447068 -0.0046591843 0.18047623
0.0038370506 -0.01035221 0.18900001
0.0070079691 -0.01035221 0.18900001
-0.026222438 -0.007688012 0.18671745
-0.022510424 -0.0076922583 0.18667337
-0.017438712 -0.0079559768 0.18695737
-0.012506204 -0.0081372494 0.18689722
-0.0074707149 -0.0082651395 0.18679127
-0.0025695057 -0.0085217403 0.18706672
0.0024199369 -0.00866892 0.1867692
0.0068596783 -0.0087690586 0.18698464
-0.026066108 -0.011170658 0.19241667
-0.022442628 -0.011542029 0.1923506
-0.017447894 -0.011462755 0.19208419
-0.01271468 -0.011628211 0.19202116
-0.0074116047 -0.011191551 0.19102345
-0.002586504 -0.011426222 0.19098651
0.0022322056 -0.011353912 0.19024186
0.0065801758 -0.011336729 0.19000006
-0.026326146 -0.0095104426 0.19000003
-0.022441139 -0.0096100578 0.19000004
-0.018655751 -0.0096100587 0.19000003
