# .PCD v0.7 - Point Cloud Data file format
VERSION 0.7
FIELDS x y z
SIZE 4 4 4
TYPE F F F
COUNT 1 1 1
WIDTH 151
HEIGHT 1
VIEWPOINT 0 0 0 1 0 0 0
POINTS 151
DATA ascii
-0.030307401 0.0086610327 0.16400002
-0.027468715 0.0083853528 0.16396526
-0.02244547 0.0081758779 0.16325785
-0.017507499 0.0081310859 0.16310833
-0.012534266 0.0079916921 0.16264616
-0.0073822443 0.0078885956 0.16241413
-0.0024919095 0.007779459 0.16221428
0.0024364949 0.0075876364 0.16182379
0.0059462246 0.0076088556 0.16184427
-0.026913902 0.01050682 0.16400003
-0.022422677 0.010799576 0.16399997
-0.017276114 0.011112647 0.16374381
-0.012429398 0.011374091 0.163509
-0.007322093 0.01189346 0.1632012
-0.0024390544 0.012316196 0.16302171
0.0024477872 0.012414714 0.16260938
0.0058279149 0.012496468 0.16258214
0.0031957515 0.015188168 0.16400002
0.0061315675 0.015416333 0.16400002
-0.030061815 0.0042112814 0.16900001
-0.027398543 0.0042114062 0.16823879
-0.022502059 0.0041873041 0.16812673
-0.017393064 0.0040617962 0.1679367
-0.012487575 0.0040171603 0.16775584
-0.0074956445 0.0038213741 0.16763273
-0.0024976071 0.0036996249 0.16751409
0.0024959627 0.0036450478 0.16721857
0.006029448 0.003561924 0.16756099
-0.030688059 0.0087078158 0.1650909
-0.027504697 0.0058651054 0.16585715
-0.022403194 0.0057020341 0.16573678
-0.017543774 0.0056662569 0.16551851
-0.012533551 0.0054985774 0.1653488
-0.0077441814 0.0054575987 0.16523682
-0.0025327513 0.0053227213 0.16499999
0.0024847242 0.0051497049 0.16500001
0.0058937343 0.0052125789 0.16516668
-0.030420557 0.012595007 0.16615151
-0.027494829 0.012850393 0.16581836
-0.022414835 0.013130628 0.16558154
-0.017593674 0.013599566 0.1654475
-0.012675984 0.013934819 0.16525555
-0.0079768021 0.014361373 0.16507997
-0.0036180362 0.01477571 0.16500001
-0.030459872 0.016197985 0.16831578
-0.027381809 0.016734542 0.16817251
-0.02246079 0.017035512 0.16810054
-0.017462811 0.017519161 0.16788632
-0.012488692 0.017486662 0.16746277
-0.0074656857 0.01747047 0.16693963
-0.0025537489 0.01740081 0.16626929
0.0024751427 0.017689951 0.16596806
0.0060290634 0.017784771 0.16605659
-0.015353324 0.020160252 0.16900001
-0.012432628 0.020330897 0.16899998
-0.0073406347 0.020635016 0.16890201
-0.0024081452 0.021058023 0.1686092
0.0024795909 0.021542676 0.16853896
0.0060738134 0.021733588 0.16858336
-0.020551359 -4.3013151e-05 0.17400001
-0.01854437 -4.3013155e-05 0.17400001
-0.01172341 -9.9152763e-05 0.17400001
-0.0074146972 -0.00022546691 0.17399998
-0.0022521664 -0.0003414914 0.17366664
0.0024967561 -0.00038958879 0.17364992
0.0058882749 -0.00029552734 0.17353848
-0.027279582 0.0018163346 0.17192027
-0.022486079 0.0017608035 0.17189606
-0.017583095 0.0016409049 0.17181419
-0.01253488 0.0015713539 0.17166966
-0.0075387135 0.0014025033 0.17144206
-0.002694546 0.0012927215 0.17128405
0.0023967091 0.0012102852 0.17110714
0.0061612348 0.0012100878 0.171
-0.030483058 0.018787436 0.17027271
-0.027777076 0.019361842 0.17000005
-0.022717152 0.01970912 0.17000003
-0.019365877 0.019923024 0.17
-0.030446189 0.022137387 0.17199999
-0.027430937 0.022621004 0.1717945
-0.02246199 0.022640137 0.17155258
-0.017519057 0.022643119 0.17131616
-0.012558974 0.022905039 0.17108503
-0.0076670847 0.023143802 0.17078125
-0.002784583 0.02357273 0.17046307
0.0022048184 0.02395655 0.17017746
0.0058249794 0.024295069 0.17000002
-0.030377792 0.026464907 0.17400001
-0.027707594 0.026131868 0.17399989
-0.022157524 0.026221216 0.17371638
-0.017387891 0.02645872 0.17355059
-0.012410816 0.026793567 0.17346223
-0.0072764908 0.027173905 0.1731863
-0.0024719557 0.027390258 0.17277718
0.0024123555 0.02742005 0.17225836
0.0060913027 0.027319118 0.17174676
-0.00048145757 0.030244302 0.17400001
0.002848322 0.030517971 0.17399995
0.0060321386 0.030663947 0.17400001
-0.027117223 -0.0013254863 0.17707613
-0.022553742 -0.0015694827 0.17686212
-0.017446078 -0.0016175607 0.17681594
-0.012595191 -0.0017110138 0.17688079
-0.0073880451 -0.0020123895 0.1769135
-0.0025388619 -0.002245934 0.17685144
0.0024552722 -0.0024331068 0.17690347
0.006054509 -0.0023029135 0.17688376
-0.029110573 0.00032374423 0.17500001
-0.030194905 0.02885001 0.175
-0.027439853 0.028438648 0.17539585
-0.022593003 0.028561449 0.17536566
-0.017674932 0.028932575 0.1752754
-0.012778873 0.029212244 0.17500009
-0.0085766725 0.029445559 0.17499998
-0.026876651 -0.0054552169 0.18338712
-0.022399988 -0.0055440837 0.18346669
-0.017617602 -0.0056213695 0.18332696
-0.012709294 -0.0057012355 0.18317544
-0.0076047988 -0.0058041792 0.18299997
-0.0024961755 -0.0060695847 0.18316069
0.0023693815 -0.0061845277 0.18289234
0.006364157 -0.0061643715 0.18287185
-0.027199868 -0.0038296727 0.18101862
-0.022510553 -0.0040309224 0.18094236
-0.017472155 -0.0040139812 0.1808148
-0.012438421 -0.0040257056 0.18071149
-0.0074875928 -0.0042257691 0.18052086
-0.0027235616 -0.0044471566 0.18054169
0.002466196 -0.0045751384 0.1803658
0.0066253291 -0.0043606819 0.18027592
0.0042334152 -0.01035221 0.18900001
0.0060170568 -0.01035221 0.18900001
-0.026817482 -0.0076621426 0.18685141
-0.022571836 -0.0078113419 0.18698932
-0.017489564 -0.0079691876 0.18687367
-0.012408573 -0.0081670042 0.18712121
-0.0074313711 -0.0084081944 0.18708567
-0.0025727858 -0.0085278228 0.18697846
0.0024222494 -0.0086756563 0.18691216
0.0065585827 -0.0086435769 0.18680702
-0.026450647 -0.011329419 0.19254552
-0.022331059 -0.011489027 0.19224733
-0.017509094 -0.011303268 0.19184889
-0.012655232 -0.011398663 0.1914334
-0.0076027899 -0.011443994 0.1912251
-0.0026131431 -0.011298697 0.19061899
0.0023303537 -0.011352333 0.19015139
0.0064419089 -0.011295394 0.19020003
-0.026624991 -0.0096100578 0.19000003
-0.022441141 -0.0096100578 0.19000004
-0.017858826 -0.0096100587 0.19000003
