# .PCD v0.7 - Point Cloud Data file format
VERSION 0.7
FIELDS x y z
SIZE 4 4 4
TYPE F F F
COUNT 1 1 1
WIDTH 83
HEIGHT 1
VIEWPOINT 0 0 0 1 0 0 0
POINTS 83
DATA ascii
-0.041879334 0.032885805 0.11841285
-0.037515476 0.033149723 0.11816881
-0.034021191 0.033625133 0.11818495
-0.041401867 0.035363071 0.11899998
-0.037287481 0.03582282 0.11888051
-0.034009036 0.035937477 0.11880326
-0.045963015 0.029466638 0.12334048
-0.042515852 0.029517328 0.12332174
-0.037740748 0.029623171 0.12345658
-0.034669735 0.029990232 0.123
-0.04541871 0.030606138 0.12117648
-0.042559288 0.030714849 0.12107063
-0.037371673 0.030885305 0.12117428
-0.033981789 0.031917363 0.12122892
-0.045531016 0.038658015 0.12239999
-0.042585291 0.037830811 0.12121384
-0.037678439 0.03827079 0.1208024
-0.033721276 0.038393375 0.12066054
-0.045949571 0.040719323 0.12400001
-0.042276096 0.041084766 0.12355954
-0.037270192 0.041608762 0.1231744
-0.03370307 0.041741174 0.123037
-0.050419953 0.026492925 0.12900001
-0.047152124 0.02766435 0.12713008
-0.04240983 0.027831012 0.12700008
-0.037317526 0.028229831 0.12698945
-0.034707773 0.029486025 0.12645
-0.035132129 0.030275196 0.125
-0.034416016 0.03051487 0.12538891
-0.046447292 0.043316014 0.12615308
-0.042516548 0.043614466 0.12545595
-0.037900366 0.044037741 0.1251757
-0.033638455 0.044379175 0.125
-0.046927795 0.046316903 0.12843294
-0.042206638 0.04704066 0.12804213
-0.037408028 0.047302317 0.12755415
-0.033563707 0.04756685 0.12742043
-0.035367392 0.050069034 0.12900001
-0.033537179 0.050069034 0.12900001
-0.051682074 0.024454234 0.13329108
-0.047562826 0.024565561 0.13329531
-0.042440105 0.024504354 0.13342857
-0.038074777 0.024532054 0.13354279
-0.05144389 0.025742386 0.13140388
-0.047693428 0.025816511 0.13102283
-0.042680636 0.025872709 0.13106118
-0.037280127 0.026197845 0.13135856
-0.034851104 0.028816216 0.13000003
-0.050320014 0.048876621 0.13150001
-0.047659718 0.048860129 0.13071422
-0.043077793 0.049332954 0.13012828
-0.050833773 0.050881714 0.13311107
-0.047594558 0.05096842 0.13233331
-0.042770695 0.050672259 0.13120002
-0.038376361 0.050289985 0.13000005
-0.033024274 0.050176121 0.13000003
-0.055814255 0.02190418 0.13802706
-0.052527685 0.022520522 0.13699993
-0.047412209 0.022665806 0.13702457
-0.042472865 0.022742957 0.13693914
-0.038014445 0.023047026 0.1372032
-0.036191531 0.025035864 0.13500002
-0.060085271 0.019116536 0.14400001
-0.057265639 0.019379305 0.14303662
-0.052459922 0.019259356 0.14312373
-0.047554117 0.019258706 0.14344709
-0.042404857 0.019236881 0.14286995
-0.038771629 0.019372735 0.14335421
-0.056879871 0.020612238 0.14104053
-0.052442715 0.020612463 0.14092638
-0.047401421 0.020517204 0.14097278
-0.042464431 0.020779738 0.14080374
-0.038017504 0.020833101 0.14143364
-0.061176024 0.017039288 0.14738026
-0.05752901 0.017338805 0.14685869
-0.052458778 0.017162556 0.14717203
-0.047554888 0.017246233 0.14686254
-0.042462748 0.017152039 0.1469896
-0.038622301 0.017587846 0.14698379
-0.062984049 0.01558581 0.15000004
-0.055743992 0.015865225 0.15000001
-0.054805864 0.015656751 0.15000001
-0.0380725 0.016410725 0.14999999
