# .PCD v0.7 - Point Cloud Data file format
VERSION 0.7
FIELDS x y z
SIZE 4 4 4
TYPE F F F
COUNT 1 1 1
WIDTH 211
HEIGHT 1
VIEWPOINT 0 0 0 1 0 0 0
POINTS 211
DATA ascii
-0.011789154 0.0096664689 0.15899998
-0.0099432711 0.0099641904 0.15900001
-0.012153406 0.011794025 0.1590002
-0.0099432711 0.011242416 0.15900002
-0.01619792 0.0081413398 0.16301386
-0.012516292 0.0077739391 0.16183117
-0.00734893 0.0078162821 0.16171961
-0.0024816561 0.0076773372 0.16311976
0.00050561153 0.0070463461 0.16400002
-0.015662203 0.011964694 0.16290247
-0.012705094 0.013490258 0.16040237
-0.0074226074 0.012395496 0.16145827
-0.0034215646 0.01164257 0.16343814
-0.015071051 0.015436566 0.164
-0.012172959 0.017383888 0.1619506
-0.0083417892 0.016991993 0.16330884
-0.012069453 0.020995196 0.16382755
-0.0097973719 0.020366313 0.164
-0.020580718 0.0043610134 0.1688125
-0.01736157 0.0040386631 0.16815388
-0.012394211 0.0039477949 0.16771428
-0.0074927229 0.0038195115 0.16755106
-0.0025688212 0.0036358899 0.16725902
0.0025708203 0.0035331449 0.16707037
0.0076338146 0.0033026289 0.16789269
0.01112057 0.0034607423 0.16900003
-0.020388156 0.0060103838 0.16849999
-0.018052693 0.0069590891 0.16627781
-0.012537681 0.0055001276 0.1653953
-0.0077583706 0.0054228874 0.16519998
-0.0027249914 0.0054765143 0.16499999
0.0028947857 0.0075444249 0.16569169
0.0073075998 0.0072013508 0.16788119
0.010696654 0.0056289677 0.16900001
-0.017438287 0.012346055 0.1667183
-0.0018070017 0.013256591 0.16555887
0.002210506 0.012243349 0.16749425
0.0056891236 0.011031374 0.16895831
-0.015956638 0.017023675 0.16746342
-0.014767824 0.018606439 0.16541666
-0.0062450343 0.018149801 0.16560715
-0.0026766199 0.017306017 0.16743024
0.00075036805 0.016045123 0.16881253
-0.015334047 0.020795843 0.1684
-0.012416682 0.023172474 0.16596563
-0.0076684351 0.022379799 0.16704522
-0.0040634396 0.020953521 0.16872226
-0.011960487 0.027217768 0.16797796
-0.0087936278 0.026465014 0.16860004
-0.016537379 -4.3013155e-05 0.17400001
-0.012523401 -4.3013155e-05 0.17400001
-0.0070577222 -0.00018580303 0.17400002
-0.0024266457 -0.00039823967 0.17368416
0.0026051376 -0.00048513766 0.17355311
0.0075133829 -0.0005894443 0.17326783
0.012624881 -0.0006262447 0.17298271
0.017044736 -0.00091108371 0.17323074
-0.021845518 0.0022296323 0.17245193
-0.017546311 0.0016377362 0.17195536
-0.01258048 0.0015110469 0.17168866
-0.007515633 0.0013955513 0.17155215
-0.0025735735 0.0012291854 0.17126831
0.0022823294 0.0011159172 0.17099993
0.0073342822 0.00088247826 0.17082758
0.0130163 0.0022629024 0.17045176
0.017313309 0.0024054053 0.17211746
0.020036614 0.0021367567 0.17314287
-0.021274313 0.0075724479 0.17122917
0.0089892708 0.009239695 0.17021433
0.012586319 0.0076481202 0.17159262
0.016349507 0.0065877875 0.17344441
-0.020531412 0.012087098 0.17300004
-0.01916264 0.01328455 0.17110528
0.0040626042 0.01427953 0.17005265
0.007725596 0.01277652 0.17141026
0.01162252 0.011784916 0.17332974
-0.020368906 0.015283098 0.17400001
-0.017994007 0.017410439 0.17192206
-0.00076748844 0.019447668 0.17
0.002752464 0.01776124 0.1711667
0.0067435121 0.016760346 0.17321156
-0.016506737 0.022397459 0.17241175
-0.014909393 0.024379509 0.17
-0.0057587489 0.024438929 0.16999999
-0.0022778169 0.022862757 0.17106944
0.0018151252 0.021925712 0.17310002
0.005296241 0.020148532 0.17400001
-0.015726382 0.026437044 0.17319049
-0.01382117 0.028105186 0.1707931
-0.0069944956 0.028024908 0.17088804
-0.0030530333 0.027046451 0.17306824
0.00030917491 0.025378868 0.17400001
-0.011983217 0.032382373 0.1714123
-0.007857305 0.032172333 0.17269865
-0.0044346205 0.030487575 0.17400001
0.01358195 -0.0053936029 0.17900001
-0.026234195 -0.0012712606 0.17823404
-0.022418456 -0.0014267442 0.17712855
-0.017595308 -0.001634005 0.17700896
-0.012473259 -0.0017633237 0.17686358
-0.0075250356 -0.0019910843 0.1768762
-0.0024870418 -0.0023952823 0.17700006
0.0024502489 -0.0026889704 0.17713444
0.0075580254 -0.0028293217 0.17699063
0.012531349 -0.0031652208 0.17707874
0.015821975 -0.0028786289 0.1758929
-0.025754627 0.0020397622 0.17717782
-0.024100859 0.0024257873 0.17545953
0.019622378 0.0044132243 0.17500003
0.020251527 0.0041772923 0.17500001
-0.025298053 0.0061765541 0.17900001
-0.023567988 0.007504968 0.17689067
0.018269401 0.0080465982 0.17564486
0.020335887 0.0078053097 0.17693749
-0.022207638 0.01250456 0.17690167
0.013616877 0.01322743 0.17568006
0.017382991 0.012382124 0.17748345
0.020250652 0.011544202 0.17822221
-0.021169916 0.017201737 0.17776473
-0.019479889 0.018581999 0.17566669
0.0084629096 0.018407091 0.17541797
0.012329066 0.017312448 0.17720394
0.015866345 0.016254898 0.17888886
-0.020261772 0.021119269 0.17877778
-0.018730396 0.022727335 0.17675005
0.0036886923 0.023560721 0.17542115
0.0074862959 0.022473777 0.17707548
0.011013577 0.02133291 0.17867437
-0.017259188 0.027663019 0.17698668
-0.014980901 0.029317107 0.17500001
-0.0011674551 0.028786024 0.17525649
0.0025773628 0.027527297 0.17689762
0.0063939574 0.026454192 0.17864704
-0.030337576 -0.0052162656 0.18400002
-0.02742511 -0.0055056214 0.18370734
-0.022339851 -0.0055156704 0.18347625
-0.017602013 -0.0056171361 0.18317316
-0.012595488 -0.0056116469 0.18300006
-0.0074592172 -0.0058925967 0.18301423
-0.0025679721 -0.0060240095 0.18284489
0.0023646569 -0.0061750021 0.18259999
0.0075439406 -0.0062162695 0.18238887
0.011392305 -0.0062890188 0.18166672
-0.030545339 -0.0033095961 0.18368424
-0.027855629 -0.0030711871 0.18148981
-0.022625076 -0.0039050118 0.18099999
-0.017440513 -0.0040208534 0.18098119
-0.012488161 -0.0040521957 0.18088004
-0.0075008781 -0.0042078062 0.180436
-0.0026460397 -0.0044952701 0.18048781
0.0023741391 -0.0047345473 0.18033333
0.0075273835 -0.0047706761 0.18000002
0.011204141 -0.0049518719 0.18000001
-0.027663099 0.0027583665 0.18204354
-0.026350783 0.007542247 0.18208164
-0.024777766 0.0091922646 0.18028574
-0.025494533 0.012230944 0.18368185
-0.024217641 0.012747816 0.18170276
0.019278238 0.014384027 0.18000002
0.020219581 0.013999156 0.18016669
-0.025012443 0.015003799 0.18400002
-0.023194669 0.017437192 0.18202224
0.014381349 0.0193648 0.18000004
0.017876841 0.01776721 0.18119203
0.020296212 0.017748807 0.18252632
-0.021377079 0.022195036 0.18180957
-0.01993881 0.024492381 0.18000001
0.0097570941 0.024744041 0.18000001
0.013032776 0.022858983 0.18094598
0.017124455 0.022103248 0.18316521
0.020355903 0.021536181 0.18400003
-0.020512477 0.026392777 0.18252942
0.0038370506 -0.01035221 0.18900001
0.0067726276 -0.010615388 0.1885455
-0.026314674 -0.0066682911 0.18526088
-0.022333618 -0.0075836442 0.18655424
-0.017511291 -0.0081038363 0.18716662
-0.012477688 -0.0080918269 0.18698075
-0.0074135298 -0.0085301362 0.18712103
-0.0026005111 -0.0085244179 0.18713833
0.0024200412 -0.0086706532 0.18680221
0.0073241186 -0.0086574461 0.18616675
0.010420786 -0.0083078844 0.18537499
-0.030629635 -0.0010165861 0.18529999
-0.029804094 -0.00023972051 0.185
-0.030508112 0.0025975269 0.18764707
-0.029389223 0.0027924178 0.18575859
-0.030052144 0.0066914828 0.18900001
-0.028634908 0.0074704508 0.18702039
-0.027262997 0.01223674 0.18727455
-0.025624944 0.01729014 0.18750003
-0.024314327 0.01879162 0.18592308
-0.025295764 0.020564256 0.18900001
-0.02348377 0.022443676 0.18685716
-0.016098296 -0.010461582 0.19028574
-0.012160595 -0.011490419 0.19162637
-0.0076819109 -0.011767863 0.1920298
-0.0025437418 -0.011723044 0.19188087
0.0022843352 -0.011353488 0.19036664
0.0056504314 -0.01160237 0.19000003
-0.030703748 0.0079051116 0.19155556
-0.029684683 0.0091272583 0.19020002
-0.030558301 0.011168094 0.1928889
-0.028936669 0.012985996 0.19119233
-0.027432969 0.017514963 0.19152939
-0.0017941504 -0.015369224 0.19599999
0.00028099644 -0.015296043 0.1965
-0.0058854618 -0.014115127 0.195125
-0.0025889957 -0.014188081 0.19541673
0.00075828598 -0.013942515 0.19566669
-0.030288383 0.016589213 0.19833335
