# .PCD v0.7 - Point Cloud Data file format
VERSION 0.7
FIELDS x y z
SIZE 4 4 4
TYPE F F F
COUNT 1 1 1
WIDTH 81
HEIGHT 1
VIEWPOINT 0 0 0 1 0 0 0
POINTS 81
DATA ascii
-0.047171135 -0.057544373 0.27337256
-0.042523738 -0.056885853 0.27192309
-0.04568807 -0.054480184 0.27400002
-0.042792615 -0.053688303 0.2737408
-0.055395707 -0.060915522 0.27700001
-0.05316912 -0.060782414 0.27605557
-0.037134811 -0.060902961 0.27900001
-0.055488143 -0.05844472 0.27887502
-0.052189611 -0.057472415 0.27661669
-0.049038786 -0.056367967 0.27526674
-0.04028108 -0.055570811 0.27500001
-0.037901055 -0.059054218 0.27846158
-0.050901692 -0.053852037 0.27841672
-0.047580004 -0.052354209 0.27673078
-0.04211488 -0.051670015 0.27561107
-0.038973596 -0.052247379 0.27746007
-0.046577726 -0.048099272 0.27829409
-0.04256238 -0.047643773 0.27775586
-0.039072819 -0.048738513 0.27881822
-0.043581292 -0.044423245 0.27900004
-0.031665906 -0.065842815 0.28399998
-0.058531668 -0.062163766 0.28040001
-0.037054967 -0.060275875 0.28100002
-0.032718457 -0.062783815 0.28400013
-0.036596429 -0.058260474 0.28173685
-0.033863109 -0.05932356 0.28400001
-0.052599795 -0.051829625 0.28097227
-0.036435165 -0.053079348 0.28188887
-0.050867397 -0.048294496 0.28138462
-0.048426438 -0.046954487 0.28066674
-0.040364884 -0.045944486 0.28
-0.037743479 -0.047563493 0.28074419
-0.04725232 -0.042506266 0.28198412
-0.042294342 -0.042102855 0.28126138
-0.039242506 -0.043051261 0.28246155
-0.046293244 -0.038669132 0.28360003
-0.042929716 -0.038129807 0.2834667
-0.027610656 -0.067856863 0.28800005
-0.030917291 -0.060932063 0.286091
-0.028912358 -0.061587669 0.28875005
-0.035565082 -0.057880387 0.28500006
-0.032207895 -0.05813057 0.28631479
-0.028819127 -0.05855329 0.28894117
-0.035262048 -0.051856175 0.2886667
-0.033523314 -0.052292842 0.28812757
-0.035302766 -0.049965091 0.289
-0.033584569 -0.049457442 0.28900003
-0.055452522 -0.043404706 0.289
-0.052264057 -0.043136641 0.28697437
-0.049601771 -0.040493384 0.28500003
-0.037603289 -0.042123031 0.28739464
-0.051098056 -0.038352109 0.28822222
-0.048035596 -0.037020706 0.2866087
-0.041700304 -0.036267377 0.28544125
-0.038291886 -0.037723836 0.28723437
-0.026095966 -0.066891 0.29350001
-0.023331961 -0.066659778 0.29394117
-0.026801778 -0.062539391 0.29139626
-0.02402759 -0.063131586 0.2936452
-0.03062867 -0.056627024 0.29000002
-0.027325204 -0.059123069 0.29107141
-0.03091423 -0.050195616 0.29033336
-0.035547078 -0.045120612 0.29100001
-0.031929873 -0.04725353 0.29216364
-0.029480793 -0.048346698 0.29384613
-0.056030869 -0.040476635 0.29325002
-0.053825863 -0.040309634 0.29033336
-0.035978418 -0.042724606 0.29038459
-0.033232138 -0.042828865 0.29282254
-0.055710156 -0.039033413 0.293125
-0.020729207 -0.06726557 0.29500002
-0.025034156 -0.060090654 0.29500002
-0.022702321 -0.062017746 0.29618186
-0.025717415 -0.058967195 0.29657146
-0.023096237 -0.058250513 0.29727778
-0.02903969 -0.045786843 0.29685721
-0.057560448 -0.040000893 0.29500002
-0.030971408 -0.041653521 0.29588887
-0.029311249 -0.042970818 0.2978572
-0.026700974 -0.045942865 0.30165222
-0.023812681 -0.046416987 0.30347055
