# .PCD v0.7 - Point Cloud Data file format
VERSION 0.7
FIELDS x y z
SIZE 4 4 4
TYPE F F F
COUNT 1 1 1
WIDTH 149
HEIGHT 1
VIEWPOINT 0 0 0 1 0 0 0
POINTS 149
DATA ascii
-0.027214086 0.0082607111 0.16399971
-0.02239408 0.0081863347 0.16346097
-0.017541908 0.0081585236 0.16314197
-0.012530133 0.0079893926 0.16260681
-0.007431577 0.0079594133 0.16239455
-0.0024918169 0.0077790031 0.16221431
0.0024780545 0.0076944339 0.16172983
0.0062141959 0.0078125708 0.16172454
-0.026661679 0.010415102 0.16400002
-0.022285882 0.01066055 0.16400003
-0.017287865 0.011061439 0.16379735
-0.012395311 0.011491564 0.16353376
-0.0073487493 0.011910219 0.16318633
-0.0024355096 0.012337321 0.16296794
0.0024446452 0.012401118 0.16243321
0.0062138238 0.012338275 0.16241416
-0.00028181981 0.01509263 0.164
0.0029584158 0.015409413 0.16400002
0.0062264996 0.015568846 0.16400002
-0.0269801 0.0042328071 0.16814551
-0.022473784 0.0041819531 0.16791543
-0.017385133 0.0040735104 0.16792309
-0.012433392 0.0039870902 0.16769321
-0.0074949684 0.0038207811 0.16761217
-0.0025009315 0.0037609253 0.16742153
0.0024968043 0.0036475989 0.16730261
0.0064058686 0.0037479964 0.16717857
-0.030215371 0.0094751175 0.16500002
-0.027314261 0.0058859917 0.16596359
-0.022411231 0.0056962608 0.16548279
-0.017464925 0.0056848815 0.16549999
-0.012537681 0.0055001252 0.16539529
-0.0075094025 0.0055135339 0.16531813
-0.0025327515 0.0053227223 0.16499999
0.0021386908 0.0052881185 0.16499998
0.0062957876 0.0052685165 0.16511112
-0.030200697 0.01261797 0.16683334
-0.027484812 0.012719764 0.16591929
-0.022476122 0.012984724 0.16557473
-0.017516784 0.013496437 0.16545148
-0.01271262 0.014044781 0.16529626
-0.0079046823 0.014393545 0.16502081
-0.0039361068 0.014761729 0.16500001
-0.027228463 0.016582463 0.168322
-0.022409098 0.016963316 0.16809852
-0.017477542 0.017421331 0.1679441
-0.012473089 0.017484376 0.16742781
-0.0074613336 0.017460015 0.16683523
-0.0025645089 0.01740291 0.16618255
0.0024022146 0.017954208 0.16591834
0.0065339077 0.018153356 0.16595177
-0.015353324 0.020160252 0.16900001
-0.01193799 0.020321356 0.16899997
-0.0072545572 0.020674998 0.16888681
-0.0023841015 0.021119274 0.16855443
0.0025645155 0.021680398 0.16839993
0.0063278107 0.021936601 0.1682286
-0.021281173 -4.3013155e-05 0.17400001
-0.017586488 -0.00011143328 0.17400001
-0.012523401 -4.3013155e-05 0.17400001
-0.0073268488 -0.00021870935 0.17399998
-0.0022942184 -0.00028198812 0.1735862
0.0024295724 -0.00040744754 0.17349996
0.0066986494 -0.00045744836 0.17337929
-0.026932828 0.0018681169 0.17180204
-0.022481969 0.001760812 0.1718639
-0.017575178 0.0016564504 0.17189564
-0.012545822 0.0015469579 0.17163298
-0.0075392141 0.0014024976 0.17146315
-0.0026810148 0.001355995 0.17129028
0.0023957698 0.0012100878 0.17099996
0.0066327159 0.0013900449 0.17106447
-0.030058959 0.018785063 0.171
-0.027618174 0.019086218 0.17016673
-0.022881549 0.019616025 0.17000003
-0.019136688 0.019872094 0.17
-0.030047717 0.022632875 0.17300001
-0.027431535 0.022482753 0.17206414
-0.022477731 0.022682542 0.17178348
-0.017521603 0.022646574 0.17133915
-0.012617595 0.022812333 0.17093049
-0.0077053118 0.023154991 0.17073007
-0.0028269235 0.023618815 0.1703888
0.0022411586 0.024077499 0.17005268
0.0063510011 0.024415163 0.17000003
-0.027229166 0.025850819 0.17399989
-0.022284795 0.02617861 0.17387681
-0.01732379 0.026424013 0.17360708
-0.012322634 0.026946656 0.17349622
-0.0073926076 0.02728373 0.17313658
-0.0025293811 0.027446838 0.17266475
0.0023751615 0.027415246 0.1720057
0.006355348 0.027445398 0.17147364
-0.0010288184 0.030244304 0.17400001
0.0027840657 0.030635692 0.1739523
0.0064812005 0.03069583 0.17348483
-0.026620379 -0.0013622091 0.17698634
-0.02257579 -0.0016253156 0.17698213
-0.017518006 -0.0017532792 0.17703848
-0.012512648 -0.0019013932 0.17699178
-0.0075018951 -0.0020528079 0.17709103
-0.0025135058 -0.0022079938 0.17700014
0.00247796 -0.00246231 0.176902
0.0067042918 -0.0024972125 0.17680012
-0.028376564 0.00032374423 0.17500001
-0.030104538 0.02828606 0.17616668
-0.027510427 0.02818655 0.17549497
-0.02249795 0.028547376 0.1754272
-0.017654413 0.028875509 0.17537506
-0.013097589 0.029268807 0.17500007
-0.0081913183 0.029684115 0.175
-0.030084807 0.030294817 0.17750001
-0.026432985 -0.0055937511 0.18351728
-0.022531295 -0.0056082457 0.18339999
-0.017602013 -0.0056171375 0.18317309
-0.012604471 -0.0056159142 0.18313468
-0.0075503183 -0.0057788654 0.18299992
-0.002512163 -0.0060468693 0.18296362
0.0023701289 -0.0061855298 0.18290767
0.0068609123 -0.0063048983 0.1827857
-0.026751166 -0.0038105762 0.1808462
-0.02252592 -0.0040336549 0.18107416
-0.017418131 -0.0040154094 0.18073589
-0.012431736 -0.0042119394 0.18061537
-0.007451246 -0.0042311237 0.18062513
-0.0027423874 -0.0044583511 0.18046808
0.0024661263 -0.0045738989 0.18031701
0.0068088346 -0.0045976876 0.18035713
0.0038370506 -0.01035221 0.18900001
0.0070079691 -0.01035221 0.18900001
-0.026269367 -0.0078203985 0.1870435
-0.022473792 -0.0078936154 0.18696672
-0.017417138 -0.0079872394 0.18702105
-0.012467786 -0.0080845915 0.186827
-0.0074479473 -0.0082878917 0.18690218
-0.0025878986 -0.0085057067 0.18705273
0.0024213111 -0.0086736185 0.18686818
0.0068643717 -0.0087932441 0.18707812
-0.025925424 -0.011437617 0.19260527
-0.022505218 -0.01160392 0.19245011
-0.017438769 -0.011619617 0.1921732
-0.012730702 -0.011528637 0.19173959
-0.0074548572 -0.011175343 0.19070233
-0.0026674103 -0.011381234 0.19065672
0.0022423114 -0.011368738 0.1902063
0.0065801758 -0.011336731 0.19000006
-0.026027298 -0.0096100587 0.19000003
-0.022441139 -0.0096100578 0.19000004
-0.019054214 -0.0096100587 0.19000001
