# .PCD v0.7 - Point Cloud Data file format
VERSION 0.7
FIELDS x y z
SIZE 4 4 4
TYPE F F F
COUNT 1 1 1
WIDTH 68
HEIGHT 1
VIEWPOINT 0 0 0 1 0 0 0
POINTS 68
DATA ascii
-0.085433275 -0.080505155 0.31300002
-0.08305148 -0.080500245 0.3118889
-0.07631477 -0.080495022 0.31100005
-0.07238891 -0.080860846 0.31060004
-0.067405373 -0.080933765 0.31075004
-0.062285468 -0.081416212 0.31043997
-0.057510115 -0.08165621 0.3102144
-0.053583901 -0.081418291 0.31111112
-0.085433275 -0.078855738 0.31300002
-0.082313173 -0.077440247 0.31188244
-0.077694453 -0.077380061 0.31149358
-0.07269083 -0.077597871 0.31155732
-0.067717195 -0.077421285 0.31205136
-0.062355831 -0.07757777 0.31201383
-0.057295095 -0.077550612 0.31218669
-0.053537905 -0.077507548 0.31293336
-0.081266038 -0.074528001 0.31220004
-0.077920236 -0.0746231 0.31260005
-0.067943774 -0.074299388 0.31380001
-0.060942054 -0.074146986 0.31377777
-0.057765193 -0.07385914 0.31387508
-0.053630698 -0.073925413 0.31400001
-0.064272009 -0.075656623 0.31500003
-0.081617035 -0.071938217 0.31578115
-0.077778399 -0.072159961 0.31548077
-0.072703362 -0.071724415 0.31563994
-0.067724049 -0.072139293 0.31592584
-0.062672906 -0.071934126 0.31589788
-0.057450879 -0.071530156 0.31568286
-0.053954642 -0.071610406 0.31575
-0.08214511 -0.06787388 0.31782618
-0.07753659 -0.06744834 0.31747451
-0.072594114 -0.067590855 0.31766683
-0.067624465 -0.067569904 0.31788144
-0.062719502 -0.067606464 0.31793448
-0.057638399 -0.06793534 0.31780368
-0.053529419 -0.068373121 0.31822219
-0.080864057 -0.064979389 0.31900001
-0.077196345 -0.064791292 0.31900001
-0.072964355 -0.064838313 0.31900001
-0.067637429 -0.064979389 0.31900001
-0.06120884 -0.064979389 0.31900001
-0.083236605 -0.065476462 0.32016671
-0.065032765 -0.065183081 0.32000002
-0.062784359 -0.065183081 0.32000005
-0.057249803 -0.065557815 0.32000005
-0.053805407 -0.065804675 0.32027277
-0.085493617 -0.062334973 0.32256252
-0.082121462 -0.062447295 0.32152727
-0.077326387 -0.062099449 0.32111764
-0.072470158 -0.062300988 0.32144821
-0.067556836 -0.062422704 0.32139987
-0.062692128 -0.062535062 0.32188344
-0.057715137 -0.062486392 0.32208201
-0.054431979 -0.063007228 0.32261109
-0.085611492 -0.059142482 0.32350001
-0.081951708 -0.058302402 0.32311425
-0.077544592 -0.05846148 0.32300004
-0.072252035 -0.058729611 0.32354838
-0.067471765 -0.058361012 0.32333329
-0.062990904 -0.058709405 0.32394123
-0.058303155 -0.059280913 0.32399997
-0.054277938 -0.060863316 0.32520002
-0.073558256 -0.057506546 0.32500002
-0.065521941 -0.056189116 0.32500002
-0.062273677 -0.056441873 0.32531032
-0.057304908 -0.057104666 0.32600001
-0.054427788 -0.057784114 0.32684213
