# .PCD v0.7 - Point Cloud Data file format
VERSION 0.7
FIELDS x y z
SIZE 4 4 4
TYPE F F F
COUNT 1 1 1
WIDTH 217
HEIGHT 1
VIEWPOINT 0 0 0 1 0 0 0
POINTS 217
DATA ascii
-0.014111394 0.0099641904 0.15900002
-0.015417406 0.01129799 0.15900004
-0.013944667 0.011394992 0.15899998
-0.020230085 0.0085578514 0.16400002
-0.017341971 0.0082383351 0.16256242
-0.012470185 0.0079464056 0.16185388
-0.0075264303 0.0079706255 0.16314282
-0.0047529829 0.0075260447 0.16400002
-0.016950816 0.012319388 0.16165037
-0.011961997 0.012723899 0.1606549
-0.0085532889 0.012009309 0.16306415
-0.015879324 0.016847434 0.16280398
-0.012802276 0.017239772 0.16276969
-0.0095634321 0.015588227 0.1639231
-0.01507105 0.020251667 0.164
-0.013924599 0.020366315 0.16400002
-0.022195291 0.0042624245 0.16845763
-0.017506903 0.0041815639 0.16789998
-0.012462215 0.0040032919 0.16777009
-0.0074748951 0.0038444947 0.16767704
-0.0024916457 0.0037145431 0.1675943
0.0015469176 0.0037506595 0.16858108
-0.021997195 0.0070446189 0.16687305
-0.017723341 0.0058142911 0.1654844
-0.01253564 0.0054993513 0.16537204
-0.0072714314 0.0058699627 0.16522445
-0.0024969745 0.0074663851 0.16625011
0.0010749252 0.0067295968 0.16850001
-0.020984191 0.012038446 0.16774142
-0.019204617 0.0132112 0.16602774
-0.0064050332 0.013015759 0.16577899
-0.0031735261 0.011977433 0.16786923
-0.02022662 0.015464166 0.16900001
-0.018024068 0.017508978 0.16721843
-0.010756316 0.01902443 0.16528568
-0.0077138771 0.017317614 0.16704974
-0.0045705894 0.015692955 0.16891669
-0.016270913 0.022177281 0.1673649
-0.012412123 0.022604328 0.16647385
-0.0088157179 0.021573957 0.1684286
-0.015425362 0.026237965 0.16852941
-0.013080068 0.026752537 0.16839802
-0.020733813 -4.3013151e-05 0.17400001
-0.015260204 -4.3013151e-05 0.17400001
-0.0125234 -4.3013155e-05 0.17400001
-0.0067913132 -0.00024067138 0.17400001
-0.0025150205 -0.00038812909 0.17372969
0.0024331312 -0.00040783823 0.1736666
0.0076896865 -0.00053619366 0.17356855
0.010526579 -0.00028628478 0.17400001
-0.026850853 0.0025302521 0.17277503
-0.022594359 0.0018760321 0.1719697
-0.017506143 0.0017546759 0.17177244
-0.01253784 0.0015589593 0.17175458
-0.0075462321 0.0014253939 0.17165308
-0.0026740625 0.0013133265 0.17131817
0.0028930111 0.0019369991 0.1708362
0.0073796646 0.0024554727 0.17226975
0.010590598 0.0013397939 0.17400001
-0.02635205 0.0069494955 0.17293938
-0.02413575 0.0085250791 0.17060609
0.0031041778 0.0080168713 0.17111865
0.0063976771 0.0068117962 0.17319097
-0.025258664 0.01090421 0.17400001
-0.023191648 0.012613484 0.17174686
-0.001376038 0.013533825 0.17049153
0.0019770933 0.012167562 0.1725525
0.0051746052 0.010356847 0.17400001
-0.021614524 0.017326798 0.17216088
-0.019326974 0.018971743 0.17011766
-0.0058718943 0.018995544 0.17012003
-0.0025608395 0.017514743 0.17187202
0.00064929191 0.016241087 0.17369999
-0.020638373 0.021189688 0.17350002
-0.018611589 0.022673171 0.17162319
-0.0068453439 0.022992082 0.17146035
-0.0037573194 0.021396272 0.17330505
-0.016995957 0.027392402 0.17201281
-0.011657614 0.028564183 0.170525
-0.0082414271 0.027195498 0.17251594
-0.015813721 0.031826153 0.17327774
-0.012610004 0.032410044 0.17252484
-0.0092496267 0.030906683 0.17371431
0.011141894 -0.0052997544 0.17900001
-0.031515792 -0.0012326163 0.17839652
-0.027478032 -0.0013717201 0.17721167
-0.022520438 -0.0015323252 0.17694138
-0.017544489 -0.0015403398 0.1768333
-0.012512498 -0.0017268183 0.1767571
-0.007544769 -0.0019183436 0.17682242
-0.0024438577 -0.0023232996 0.17703068
0.0024800049 -0.0024641298 0.17706247
0.0075623505 -0.0027349957 0.17708182
0.012378239 -0.0022811885 0.17659871
0.015440858 -0.0010026852 0.17700003
-0.0312635 0.0021062922 0.17770317
-0.029150473 0.0019948324 0.17537504
0.0098530687 0.0042996276 0.17500001
0.012830036 0.0026560656 0.17648275
0.015524885 0.0019273373 0.17799999
-0.030380225 0.0056559066 0.17880002
-0.028443817 0.0079036262 0.17680602
0.0084051024 0.0080677969 0.1758315
0.011600183 0.0069315601 0.17791927
-0.026711646 0.012464329 0.17726506
-0.024615487 0.013874082 0.17528573
0.0041252403 0.013565631 0.17548726
0.0072725676 0.012334282 0.17741266
0.010438032 0.010513685 0.17900001
-0.025833528 0.01658948 0.17834371
-0.024031248 0.017806703 0.17653196
-0.00054539205 0.019530319 0.17500001
0.0028019436 0.017654015 0.17664383
0.0059837527 0.016370332 0.1785882
-0.022192024 0.022527352 0.17682146
-0.019751959 0.02472955 0.17500001
-0.0019149795 0.02301286 0.17612846
0.0013896174 0.021976635 0.17807961
-0.020991707 0.0269034 0.17809524
-0.019135002 0.027952766 0.17590916
-0.0058518448 0.027949445 0.17561822
-0.0030089926 0.027187908 0.17772365
0.00019292819 0.025232231 0.17900001
-0.031763598 -0.005442067 0.18337503
-0.027450414 -0.0054344847 0.18352635
-0.022453167 -0.0055833473 0.18339591
-0.017600529 -0.0056164474 0.1831539
-0.01259092 -0.0056093675 0.18292315
-0.0074882042 -0.0057503022 0.18288524
-0.0028089043 -0.0060243523 0.18296969
0.0023669382 -0.0061772759 0.18266155
0.0072453199 -0.006219415 0.18214087
0.01044916 -0.0055181077 0.18000001
-0.036032904 -0.00233886 0.1824445
-0.032940838 -0.0030775263 0.18098983
-0.027507037 -0.0038339007 0.18085937
-0.022516396 -0.0040319297 0.1810001
-0.017440513 -0.0040208534 0.18098108
-0.012431004 -0.0040226914 0.18059622
-0.007681807 -0.0041103065 0.18057775
-0.0025724859 -0.0043844273 0.18048783
0.0024661263 -0.0045738979 0.18031713
0.0071830787 -0.0047305408 0.18028574
-0.035508297 0.0010340266 0.18360001
-0.03346692 0.003015042 0.18181039
0.015167789 0.0046741338 0.18000001
-0.031929925 0.0075708181 0.18265851
-0.029753558 0.0097702546 0.18000001
0.013748411 0.0082822572 0.18066673
0.015559542 0.0074896389 0.18137935
-0.030678643 0.011883742 0.1832667
-0.028956365 0.012932055 0.18100002
0.0094180964 0.013899087 0.18038099
0.012417399 0.012435848 0.18209153
0.015363328 0.011396077 0.18375003
-0.03002887 0.015389679 0.18400002
-0.027617274 0.017540799 0.18223339
0.0048811771 0.019679377 0.18000001
0.0080053834 0.017723609 0.1814397
0.011167579 0.016708469 0.1835577
-0.026048386 0.022308124 0.1831957
-0.024368549 0.023196276 0.18119234
0.0035262972 0.023071101 0.18080282
0.0065820212 0.021914074 0.1829333
-0.025517054 0.025897466 0.18400002
-0.0019102395 -0.01035221 0.18900001
0.0018296266 -0.010384078 0.18877777
-0.030502453 -0.0064861388 0.185
-0.027061665 -0.00729729 0.18628171
-0.02260711 -0.0079796081 0.18710099
-0.017445924 -0.0079000331 0.18691117
-0.012467987 -0.0080841491 0.1868173
-0.0074094813 -0.0083178356 0.18684381
-0.0024654078 -0.0085781757 0.18696669
0.00236693 -0.0086301286 0.18652803
0.0059550283 -0.0081855357 0.18524998
-0.037046313 -0.00017505779 0.185
-0.036344804 0.0028243766 0.18621945
-0.034847781 0.0042220065 0.185
-0.035739455 0.0067899036 0.18775682
-0.034130614 0.0079017552 0.18588461
-0.035204884 0.010655133 0.18900001
-0.032749053 0.012418507 0.18678792
0.014425187 0.01430939 0.18499999
0.015664745 0.013720739 0.18535294
-0.03106389 0.017180217 0.18805885
-0.029081041 0.018666625 0.18533334
0.013189984 0.017853832 0.18611461
0.015562975 0.017577443 0.18796673
-0.030250326 0.020762438 0.18900001
-0.028112199 0.022361072 0.18576671
0.0086663682 0.023225427 0.18572582
0.012008311 0.022162423 0.18779431
0.01533163 0.020167891 0.18900001
-0.021217253 -0.01093335 0.19114703
-0.017463924 -0.011539662 0.19183157
-0.012589376 -0.011614159 0.19202948
-0.0075618206 -0.011531761 0.19183344
-0.002674456 -0.011940154 0.19201297
0.00092630018 -0.01127567 0.19023813
-0.021245753 -0.0096100587 0.19000003
-0.01801821 -0.0096100578 0.19000004
-0.036676392 0.0088923518 0.19085716
-0.036067735 0.012213932 0.19179408
-0.034358885 0.013645943 0.1904286
-0.035249703 0.016193878 0.19360001
-0.033269543 0.017730378 0.19155553
-0.012613827 -0.015360912 0.19733337
-0.0082189823 -0.015883442 0.19852941
-0.0045624138 -0.015399328 0.1965
-0.012617609 -0.014220745 0.19594292
-0.007327674 -0.014230155 0.19650002
-0.0040080538 -0.014160308 0.19559999
-0.0367788 0.014232405 0.19525002
-0.035957921 0.017572256 0.19571432
-0.010549903 -0.016197642 0.20000002
-0.0098857991 -0.016931651 0.2
