# .PCD v0.7 - Point Cloud Data file format
VERSION 0.7
FIELDS x y z
SIZE 4 4 4
TYPE F F F
COUNT 1 1 1
WIDTH 154
HEIGHT 1
VIEWPOINT 0 0 0 1 0 0 0
POINTS 154
DATA ascii
-0.026008202 0.0083567817 0.16399992
-0.022436023 0.0082732188 0.16399972
-0.019331411 0.0079587363 0.16400002
-0.025867635 0.010771002 0.16400003
-0.023542056 0.010646939 0.16400002
-0.026416689 0.004349546 0.16835295
-0.02247628 0.0041940636 0.16819441
-0.017394364 0.0041346657 0.16798608
-0.012484593 0.0040160511 0.16770932
-0.0074338145 0.0038554531 0.16764204
-0.0024912625 0.0037295828 0.16767609
0.0024899447 0.0036763574 0.16808474
0.0076840189 0.0033972226 0.1688816
0.010635013 0.0035794864 0.16899997
-0.026697133 0.0060405615 0.1659615
-0.022402734 0.006045837 0.16572459
-0.017240975 0.0074604675 0.16518165
-0.012460302 0.0074410406 0.16590981
-0.0074521746 0.0074811666 0.16674486
-0.0025948978 0.0075039356 0.16774221
0.0021409136 0.0068505057 0.1684389
0.0067690262 0.0059047914 0.16898005
-0.025765775 0.013164232 0.16556814
-0.022237508 0.012751976 0.16591537
-0.017453808 0.012524381 0.16694796
-0.012675829 0.012200265 0.16790706
-0.0079172365 0.011272909 0.16863729
-0.0039330767 0.010512108 0.16899998
-0.025787394 0.016920095 0.16796078
-0.022696167 0.016734492 0.16826524
-0.017987883 0.015915252 0.16884127
-0.014644481 0.01519835 0.16900001
-0.016172472 -4.3013155e-05 0.17400001
-0.012523399 -4.3013155e-05 0.17400001
-0.0070166155 -0.00017570677 0.17400002
-0.0022685183 -0.00029840713 0.17383331
0.0024331308 -0.00040783841 0.17366661
0.0072029624 -0.00053696899 0.17344438
-0.027270712 0.002070565 0.17219007
-0.022488337 0.0017542632 0.17207263
-0.017571699 0.0017186969 0.17178996
-0.012528716 0.0015710756 0.1715804
-0.0076055611 0.0014465501 0.17151019
-0.0027008734 0.0013187465 0.17127778
0.0023971631 0.0012103079 0.17111903
0.0072199213 0.0009921008 0.17112699
0.010522269 0.0026912862 0.17
-0.00047038958 0.0099405004 0.17
0.0029994994 0.0092381565 0.17018647
0.0076035727 0.0081356075 0.1706176
0.010628138 0.007449945 0.17129789
-0.011290729 0.014628723 0.17000002
-0.0072847651 0.013565387 0.17030106
-0.0024730659 0.012711821 0.17089023
0.0024135681 0.012591472 0.17202197
0.0073448932 0.012140871 0.17312181
0.010686355 0.011246516 0.17387502
-0.025929062 0.01956651 0.16999999
-0.022048397 0.019231286 0.17007276
-0.017259549 0.018244021 0.17060833
-0.012516269 0.017597524 0.17142715
-0.0074772164 0.017298974 0.17255066
-0.0027484093 0.016666835 0.17333895
0.001741152 0.015875468 0.17387746
-0.025883827 0.022499463 0.17166121
-0.022462681 0.022552151 0.17198929
-0.017637221 0.022101713 0.17300664
-0.012901194 0.021345524 0.173647
-0.0088925706 0.02041005 0.17400001
-0.025676917 0.026237771 0.1737895
-0.023026381 0.025974018 0.17383629
-0.030458558 -0.0012748588 0.17776471
-0.027473154 -0.0013606934 0.17732038
-0.022484649 -0.0014458196 0.17703474
-0.017587937 -0.0016047488 0.17707902
-0.012446851 -0.0018897085 0.17709258
-0.007530841 -0.0019774474 0.17689477
-0.0025224504 -0.0022633551 0.17691661
0.0024244501 -0.0025622246 0.17699997
0.0067065549 -0.0025479496 0.17668186
-0.03011388 0.00050817151 0.17550001
-0.029220674 0.00039714514 0.17500001
0.0088410247 0.014253239 0.17499998
0.010751273 0.013798295 0.17536841
-0.0056222873 0.019774986 0.17500001
-0.0020488224 0.019133821 0.17522231
0.0026729819 0.018112114 0.17563702
0.0074930564 0.017379479 0.17641915
0.010666603 0.017303426 0.17727454
-0.016815925 0.024616623 0.17500001
-0.012238915 0.023609944 0.17536049
-0.0073180194 0.022718662 0.17612344
-0.0025474755 0.022475189 0.17731224
0.0023067633 0.022070933 0.17807534
0.0071289935 0.021098876 0.17868118
0.010203412 0.020226987 0.17900001
-0.025743948 0.028475394 0.17532001
-0.022240091 0.028157679 0.17546487
-0.017497037 0.027514575 0.1763452
-0.012468388 0.027562961 0.17772739
-0.0078892093 0.026789306 0.17844769
-0.0032286241 0.025541143 0.17899995
-0.031210704 -0.0054615848 0.18380003
-0.027457902 -0.0054360423 0.18357897
-0.022386702 -0.005540933 0.18335558
-0.017622784 -0.0056231171 0.18338463
-0.01254013 -0.0057851668 0.18317461
-0.0077460255 -0.0058843032 0.18306784
-0.0024900408 -0.0061266301 0.1830833
0.0023666981 -0.0061788019 0.18270767
0.0058345902 -0.0060735093 0.18232004
-0.031125536 -0.0036750601 0.18172731
-0.027498636 -0.0038446058 0.18106151
-0.022593381 -0.0039339736 0.18098278
-0.017463645 -0.0040120161 0.18072227
-0.012543347 -0.0041786125 0.18075612
-0.0073294826 -0.0043121926 0.18057786
-0.0027541674 -0.0045030699 0.18054552
0.0026489482 -0.0046515162 0.18038243
0.0060731666 -0.0046318839 0.18037502
0.01120414 0.019962495 0.18000001
0.0036004067 0.024330597 0.18000001
0.0079933358 0.02341759 0.18059769
0.010860076 0.022690516 0.18120937
-0.00072114496 -0.010352211 0.18900001
0.00066613191 -0.01035221 0.18900001
-0.031788025 -0.0078527872 0.18742859
-0.027510453 -0.0077003916 0.18691346
-0.022456709 -0.0079360083 0.18710895
-0.017478457 -0.0080596423 0.18695995
-0.012518263 -0.0082795527 0.18720646
-0.0073899794 -0.008495843 0.18725489
-0.0025779607 -0.0085955523 0.1870787
0.0024220799 -0.0086740367 0.1868902
0.0053750263 -0.0080835903 0.186
-0.031657998 -0.010311658 0.19080001
-0.027294315 -0.010751142 0.19154714
-0.022256594 -0.01147746 0.19206451
-0.017526884 -0.011976972 0.19254051
-0.012683166 -0.011473658 0.19201083
-0.0074750148 -0.011693123 0.19205625
-0.0026969772 -0.011702577 0.19180518
0.0020553344 -0.011370198 0.19082148
-0.033438604 -0.0094884774 0.19022223
-0.027222686 -0.0096100578 0.19000004
-0.023835756 -0.0096100587 0.19000001
-0.010595584 -0.015231175 0.19566667
-0.0093319435 -0.015179279 0.19500002
-0.00090290245 -0.015492883 0.196375
0.00053670898 -0.015524279 0.196125
-0.012133949 -0.013938432 0.19501886
-0.0075853951 -0.014148388 0.19500004
-0.002459262 -0.014089797 0.19515385
0.0011998928 -0.013911881 0.19531256
