# .PCD v0.7 - Point Cloud Data file format
VERSION 0.7
FIELDS x y z
SIZE 4 4 4
TYPE F F F
COUNT 1 1 1
WIDTH 215
HEIGHT 1
VIEWPOINT 0 0 0 1 0 0 0
POINTS 215
DATA ascii
-0.0068527609 0.009516879 0.15899995
-0.0043116747 0.0095566409 0.15899999
-0.0067275418 0.011922532 0.15889491
-0.0042812936 0.011658116 0.15899995
-0.011894816 0.0080403499 0.16290615
-0.0075269737 0.0074853031 0.16196102
-0.0023724679 0.0075847916 0.16177469
0.0011131588 0.0076828115 0.16342846
-0.01095934 0.011612975 0.16285966
-0.0085368613 0.013208163 0.16105063
-0.0021616942 0.0126344 0.16143669
0.00053603057 0.01127709 0.16368969
-0.006889083 0.017164392 0.1622165
-0.0032887424 0.017179836 0.16276558
-0.0059959716 0.020910146 0.16359378
-0.0042428877 0.020662483 0.16380003
-0.017163437 0.0040342757 0.16835222
-0.012476927 0.0040137861 0.16760458
-0.0074464711 0.0038404721 0.16751048
-0.0025295625 0.003657497 0.16722736
0.0025768736 0.0035475022 0.16719685
0.0068268441 0.0035233349 0.16830589
-0.016761061 0.0071014003 0.167386
-0.013332429 0.0065435781 0.16536248
-0.0077634123 0.0054353904 0.1652222
-0.0029364564 0.0052650501 0.16499999
0.0035367387 0.0073139225 0.16575015
0.0063112462 0.0070955302 0.16806096
-0.015567609 0.011278325 0.16866665
-0.013074299 0.012797537 0.16653052
-0.00037004641 0.014579101 0.16500001
0.002577876 0.012565298 0.16684221
0.0053507965 0.011033896 0.16900001
-0.011513734 0.017095903 0.16748454
-0.009190985 0.01834063 0.16565849
-0.0010664696 0.017963659 0.16574626
0.0012955867 0.016985346 0.16788542
-0.01044042 0.020789966 0.16883336
-0.0075761001 0.022685207 0.16667654
-0.0024924963 0.022582779 0.16691935
0.00024118242 0.020786284 0.16890001
-0.0063594934 0.027006738 0.16805743
-0.0037106599 0.026942724 0.16837643
-0.0056067342 0.030084055 0.16900001
-0.0125234 -4.3013155e-05 0.17400001
-0.0071106069 -0.00019505793 0.17400001
-0.0022698487 -0.0003541777 0.17367642
0.0026127151 -0.00051167863 0.17353053
0.0075133825 -0.00058944442 0.17326786
0.012102963 -0.00067170907 0.17349018
-0.0251127 0.0017815239 0.17400001
-0.022279417 0.002487259 0.17259742
-0.017668834 0.0017868044 0.17174797
-0.012510597 0.0015697841 0.17163959
-0.0075639631 0.001424923 0.17156111
-0.0026257623 0.0012585736 0.17129759
0.0022836057 0.0011294513 0.17109087
0.0079776747 0.0017852866 0.17064072
0.011921674 0.0023268221 0.1724927
-0.021473439 0.007053121 0.17282557
-0.018888885 0.0082900291 0.17062967
0.0085578999 0.0079260161 0.17124464
0.011009741 0.0069030668 0.17337094
-0.020295924 0.0109407 0.17400001
-0.017592425 0.01253117 0.17179675
-0.014790554 0.014515824 0.17
0.004442357 0.01422652 0.1700909
0.0072536771 0.012365364 0.17216296
0.010283307 0.010356847 0.17400001
-0.016222931 0.016889527 0.17298484
-0.013779119 0.01800682 0.1709014
0.0035588813 0.01797911 0.17129543
0.0059451526 0.016847853 0.17333892
-0.015260204 0.02020935 0.17400001
-0.012291913 0.022384537 0.1719262
-0.0095661022 0.024267213 0.17007692
-0.00051495444 0.024334941 0.16999999
0.0021738892 0.022337737 0.17226434
0.0051746052 0.02020935 0.17400001
-0.010957596 0.026985962 0.17337029
-0.008604222 0.027920118 0.17117719
-0.0015653084 0.028018767 0.17082104
0.00088988821 0.027146431 0.17305876
-0.010151501 0.030244302 0.17400001
-0.007075001 0.032261375 0.17214052
-0.0028601815 0.0323833 0.17201936
0.018086668 -0.0052997544 0.17900001
-0.030768946 -0.0010674321 0.17881815
-0.027474582 -0.0013519746 0.17773543
-0.022421675 -0.0014403414 0.17700879
-0.017509231 -0.0015253322 0.17685014
-0.012444938 -0.0017796012 0.17698207
-0.0075161569 -0.0020041401 0.17684823
-0.0025364186 -0.0023337556 0.17696193
0.0024800475 -0.0026360005 0.17704509
0.0075547136 -0.0028278483 0.17689732
0.012649715 -0.0029732739 0.17683885
0.017587181 -0.0024282665 0.17764249
0.020509666 -0.0019382788 0.17899996
-0.030435931 0.00076879456 0.17883335
-0.027340367 0.0023384714 0.1768539
-0.024633119 0.0023422698 0.175
0.014335623 0.0032687529 0.17538239
0.016838877 0.0021679285 0.17747711
-0.026159819 0.0069016614 0.1782295
-0.023665603 0.0080334982 0.1760435
0.013314645 0.0076708659 0.17645799
0.015709912 0.006409544 0.17869563
-0.025208673 0.0102165 0.17900001
-0.022173477 0.012317856 0.17716669
-0.019539995 0.014155942 0.1754
0.0092826579 0.013488774 0.17525929
0.011771517 0.01229756 0.17742315
-0.020834915 0.016580755 0.17837498
-0.018448588 0.017820871 0.17641179
0.0082395608 0.017760135 0.1763611
0.010723533 0.016652673 0.17844442
-0.01672026 0.022125525 0.17722476
-0.01436961 0.023466347 0.17537503
0.004267008 0.023696443 0.1754483
0.0068242997 0.022153292 0.17738326
-0.01577821 0.026287502 0.17883331
-0.013287449 0.027751885 0.17686325
0.0034177632 0.027678937 0.17668225
0.0057462868 0.026585124 0.1787407
-0.025698863 -0.0055852188 0.18340002
-0.022721872 -0.005503613 0.18338101
-0.017446596 -0.0055478946 0.18339133
-0.012608127 -0.0056171366 0.18317313
-0.0075361487 -0.0057774438 0.18292069
-0.0025857815 -0.006071297 0.1829683
0.0024771483 -0.0062618363 0.18272857
0.0074416767 -0.0063449447 0.18255554
0.012322881 -0.0064225383 0.18223751
0.016121684 -0.0056149238 0.18026671
-0.031332485 -0.0018524897 0.18005267
-0.027152598 -0.003736408 0.1809445
-0.022642732 -0.0039207558 0.18110007
-0.017430466 -0.0040184497 0.18086798
-0.012553176 -0.0040598894 0.18069389
-0.0075093401 -0.0042131343 0.1806667
-0.0026089607 -0.0044818977 0.18042503
0.0022735226 -0.0046457034 0.18030554
0.0075273835 -0.0047706761 0.18000002
0.012525357 -0.0049518719 0.18000004
0.015734024 -0.0049518719 0.18000001
-0.03122687 0.0029409796 0.1819808
-0.02943507 0.0040921173 0.18053849
0.019015033 0.003481671 0.18089586
0.020702185 0.0026926165 0.18210532
-0.030645655 0.0066505778 0.18344001
-0.028406596 0.0078848116 0.18159214
0.017727043 0.0077505354 0.18179166
0.020595519 0.006392681 0.18356003
-0.026691088 0.012234221 0.18242504
-0.024187721 0.013578749 0.18043336
0.014042613 0.013084691 0.18073079
0.016439332 0.012132261 0.18284209
-0.025616657 0.016005551 0.18378574
-0.022891067 0.017696459 0.18159182
-0.01993881 0.019962495 0.18000001
0.012834936 0.017645508 0.18175727
0.015491157 0.015761444 0.18383336
-0.02148634 0.022073956 0.18267947
-0.018849207 0.023232801 0.18076006
0.0090661189 0.023139782 0.18073471
0.011497076 0.022110375 0.18277921
-0.020620687 0.02559245 0.18383335
-0.00052296254 -0.01035221 0.18900001
0.0021525002 -0.010426528 0.18900004
0.0068286979 -0.01065391 0.18859096
-0.025148381 -0.0070293052 0.185
-0.021829896 -0.0071938252 0.18587939
-0.017535554 -0.0078490451 0.18674491
-0.012452684 -0.0080750156 0.18660577
-0.0073717805 -0.0084214006 0.18702038
-0.0026040412 -0.0085801445 0.18700005
0.0023311446 -0.0087429164 0.18689534
0.0074588167 -0.0088256644 0.18625979
0.010677095 -0.0085420655 0.1851875
-0.031524196 0.008304243 0.18583868
-0.029804094 0.0096536744 0.185
0.019727528 0.0095243491 0.185
0.0206117 0.0088518923 0.18507691
-0.031007526 0.012371462 0.18784447
-0.028998509 0.012999269 0.18559571
0.018803097 0.01283054 0.18601517
0.020574959 0.012569571 0.18729998
-0.030369235 0.015490785 0.18900001
-0.02745221 0.017544465 0.18690291
-0.024631079 0.019611733 0.185
0.014667672 0.019110596 0.185
0.017340243 0.017387358 0.18703702
0.020286189 0.015015147 0.18900001
-0.026109165 0.021916738 0.18818752
-0.023754841 0.023000261 0.18611319
0.013741701 0.022874068 0.18604918
0.015961498 0.021912355 0.18826833
-0.016249668 -0.010932977 0.19107893
-0.012552796 -0.011518244 0.19200002
-0.00752777 -0.011447798 0.19187799
-0.0026244819 -0.011790572 0.19175003
0.0027555644 -0.011478533 0.19010203
0.0055176108 -0.011336729 0.19000003
-0.017659595 -0.0096100587 0.19000003
-0.03200423 0.013899206 0.19000001
-0.031150993 0.017575836 0.19131817
-0.029625151 0.019196706 0.19050002
0.019358018 0.018681327 0.19020003
0.020765664 0.017485579 0.19077779
-0.010201888 -0.015257122 0.19600001
-0.009122896 -0.015411264 0.19599999
-0.011177022 -0.013937645 0.19524004
-0.0075814989 -0.014014998 0.19546552
-0.0043223319 -0.013986513 0.19500002
